# .PCD v0.7 - Point Cloud Data file format
VERSION 0.7
FIELDS x y z
SIZE 4 4 4
TYPE F F F
COUNT 1 1 1
WIDTH 1298
HEIGHT 1
VIEWPOINT 0 0 0 1 0 0 0
POINTS 1298
DATA ascii
5.8708072 4.7177916 -0.12209846
5.8888059 4.7071142 -0.12363418
5.8919377 4.6811109 -0.11950918
5.8928108 4.6545925 -0.11487023
5.9156246 4.6440854 -0.11743403
5.9291482 4.6292958 -0.1174264
6.7981453 5.4178247 -0.16237481
5.9526358 4.6206784 -0.12050544
6.8136258 5.3978658 -0.16191857
5.9531431 4.594141 -0.11586703
6.8261318 5.3752527 -0.16056889
5.9621735 4.5753689 -0.11431617
6.8485107 5.3648677 -0.16279462
5.9769144 4.561707 -0.11482351
6.8521204 5.3344049 -0.15876447
5.9930072 4.546411 -0.11533011
6.8658285 5.3129897 -0.15786192
6.0047474 4.5300975 -0.11480875
6.8809233 5.2928171 -0.15740642
6.0112853 4.5078831 -0.11222868
6.8980656 5.2761006 -0.15784504
8.1698284 6.3757339 -0.21934396
6.0214295 4.490253 -0.11119293
6.9159722 5.2583761 -0.15828347
8.1886053 6.3510041 -0.21895508
6.0350223 4.4714651 -0.11067078
6.9183483 5.2256827 -0.15380695
8.2097874 6.3263164 -0.21894436
6.0538626 4.4612865 -0.1127224
6.9256868 5.1990438 -0.15111814
8.2283812 6.3014569 -0.21855575
6.057117 4.4365134 -0.10911385
6.9380646 5.1783867 -0.15021691
8.2338724 6.2676001 -0.2151401
6.0655055 4.4175334 -0.10756399
6.9541569 5.159245 -0.15020905
8.2432156 6.2351084 -0.21248116
6.075161 4.3969283 -0.10601359
6.9746771 5.1437902 -0.15154174
8.2675209 6.2151713 -0.21360719
6.0878644 4.3816104 -0.10600755
6.9756155 5.1121101 -0.14706638
8.2781334 6.1838856 -0.21132699
10.004951 7.6065979 -0.24401172
6.1010127 4.3625998 -0.1054861
6.9877448 5.0881658 -0.14571829
8.3002243 6.1601114 -0.21169582
10.059772 7.5990248 -0.24988383
6.1165967 4.3496399 -0.10650939
7.0035219 5.0688515 -0.14571103
8.3136387 6.1312561 -0.210173
10.102692 7.5839291 -0.25358883
6.1117678 4.3187876 -0.10032901
7.0199623 5.0516801 -0.14615102
8.3152761 6.0949306 -0.20600161
10.142849 7.5688972 -0.25698489
6.1272235 4.3057718 -0.10135262
7.0325699 5.0298157 -0.1452505
8.3269005 6.0648327 -0.20410082
10.173429 7.5435023 -0.25821277
6.1448083 4.2930813 -0.10289032
7.0321202 4.9991703 -0.1407765
8.3328304 6.0322528 -0.20106493
10.185721 7.5059652 -0.25603482
12.540678 9.3751926 -0.22338624
6.1571631 4.2775378 -0.10288496
7.0353575 4.9700222 -0.13719565
8.3411112 5.9997125 -0.19840765
10.205269 7.4717951 -0.25509533
12.57294 9.3377037 -0.2236136
6.1714082 4.2594843 -0.10287889
7.054553 4.9519787 -0.1380823
8.353281 5.9684057 -0.19650714
10.224329 7.4348307 -0.25384584
12.608167 9.2993717 -0.22408108
6.1775584 4.2390947 -0.10081574
7.0713916 4.9336305 -0.13852264
8.3597307 5.93466 -0.19347154
10.24516 7.4017749 -0.25321642
12.65114 9.2701759 -0.22599265
6.1796827 4.2143269 -0.09720891
7.0812459 4.9114251 -0.13717644
8.3666477 5.903347 -0.19081503
10.272493 7.3762403 -0.25413626
12.683107 9.2354574 -0.22646193
14.500566 10.633717 0.077201642
6.1841216 4.19277 -0.094631329
7.0855846 4.8834715 -0.13404296
8.379034 5.8744283 -0.18929392
10.302503 7.3502641 -0.25536531
12.725927 9.2059088 -0.2283739
14.505618 10.565096 0.080466434
6.2041836 4.1793075 -0.0966838
7.0952005 4.8580995 -0.1322497
8.4015913 5.8514271 -0.19004297
10.357189 7.3405795 -0.26123929
12.754382 9.1621666 -0.22788055
6.2161641 4.1635628 -0.096679136
7.1055112 4.8348818 -0.13090363
8.4137583 5.822433 -0.18852194
10.40759 7.3297663 -0.26649469
12.790682 9.1274872 -0.2288309
14.532376 10.437862 0.085284755
6.2179084 4.1388135 -0.093072735
7.1212163 4.8173194 -0.13134499
8.4170504 5.7887306 -0.18510951
10.453683 7.3178787 -0.27113119
12.842845 9.1077662 -0.23242813
14.520442 10.360975 0.090087414
6.2251096 4.1195545 -0.091524787
7.1329246 4.795208 -0.13044596
8.4415598 5.7691216 -0.1866165
10.470888 7.2817249 -0.2698836
12.886942 9.0786705 -0.23458171
6.2412329 4.1043782 -0.092549048
7.1414132 4.7707462 -0.12865359
8.4502354 5.7377162 -0.18433934
10.527639 7.2749434 -0.27637815
12.921396 9.0422878 -0.23529236
14.518068 10.21743 0.097640157
6.2576313 4.0919528 -0.094088443
7.1498022 4.746274 -0.12686145
8.4619417 5.7086401 -0.18281904
10.573314 7.2596478 -0.28070515
12.93334 8.9893084 -0.23263623
14.535646 10.160001 0.09936282
6.2683759 4.0740519 -0.093569651
7.1636558 4.7273932 -0.1268566
8.4710531 5.6796074 -0.18092088
10.595482 7.2294025 -0.28069741
12.948403 8.9418573 -0.23070225
17.111191 11.971788 -0.17093197
6.2674952 4.0490112 -0.089449629
7.1702824 4.7017441 -0.12461793
8.480938 5.6493468 -0.17902271
10.609111 7.1905265 -0.27883148
12.979206 8.9028769 -0.23093298
14.529673 10.019382 0.10691274
6.2849574 4.0347691 -0.09098874
7.18471 4.6817946 -0.1246131
8.4922848 5.6202331 -0.17750303
10.60815 7.1412454 -0.27417877
13.024374 8.8742275 -0.23332837
14.531875 9.9516125 0.11017423
6.2901726 4.0142589 -0.08892712
7.1958961 4.6595273 -0.12371483
8.5083132 5.594522 -0.17711888
10.619818 7.1012402 -0.27200377
13.056562 8.8361244 -0.23379992
17.121149 11.72977 -0.15943044
6.302804 3.9965432 -0.088923089
7.200634 4.6327229 -0.12102988
8.522646 5.5676236 -0.17635648
10.629699 7.0601001 -0.26951921
13.069188 8.7841215 -0.23138574
17.124277 11.649708 -0.15565456
6.3189158 3.9838147 -0.090462931
7.2180076 4.6149139 -0.12191894
8.5224218 5.5305142 -0.17218839
10.639413 7.0189614 -0.26703501
13.101074 8.7458458 -0.23185796
17.136812 11.576632 -0.1529054
6.3171854 3.9560192 -0.085828707
7.2257404 4.5903316 -0.12012774
8.5332947 5.501339 -0.17066933
10.642468 6.9733119 -0.26331228
13.136094 8.7097149 -0.23281148
17.129416 11.48993 -0.14810392
6.3252492 3.9376981 -0.084796384
7.242981 4.5724125 -0.12101708
8.5488892 5.4755101 -0.17028588
10.642073 6.9254637 -0.25897062
13.164474 8.6689205 -0.23280321
17.131432 11.410221 -0.14432925
6.3423734 3.923146 -0.086336322
7.2457199 4.544467 -0.11788598
8.5563049 5.4440613 -0.16801049
10.657733 6.8889003 -0.25772569
13.205799 8.6370258 -0.23471917
17.134729 11.331761 -0.14072616
6.3535037 3.906945 -0.08633323
7.2499418 4.5176544 -0.11520178
8.568449 5.4159479 -0.16687058
10.669982 6.85008 -0.2558617
13.232284 8.5948687 -0.23447098
17.147551 11.26014 -0.13814995
6.3641424 3.8879125 -0.085815489
7.2621131 4.4963326 -0.11475126
8.5642309 5.3767838 -0.16194651
10.678804 6.8090281 -0.25337857
13.248755 8.5459433 -0.23278007
17.151812 11.182976 -0.13471864
6.3591318 3.8608339 -0.080667689
7.2774367 4.4771595 -0.11519453
8.581007 5.351964 -0.16194218
10.697284 6.774622 -0.2527537
13.297984 8.5191565 -0.23589948
17.14249 11.097028 -0.12991923
6.3615623 3.8364189 -0.077577643
7.2910795 4.4568367 -0.11519111
8.5878963 5.3205433 -0.1596676
10.699208 6.729177 -0.24903244
13.328998 8.4800034 -0.23637354
17.14603 11.020113 -0.12648907
6.3707933 3.8190877 -0.07706067
7.2916565 4.4278426 -0.11161404
8.597928 5.2912993 -0.15814981
10.700929 6.683795 -0.2453115
13.363199 8.4429188 -0.23732899
17.152533 10.945517 -0.12340114
6.3896456 3.8081126 -0.079630405
7.292388 4.4020023 -0.10848415
8.6078396 5.2656212 -0.15701117
10.713523 6.6503983 -0.24406843
13.386247 8.4044056 -0.23708273
17.155123 10.876459 -0.12031451
6.3955417 3.7885818 -0.078084536
7.3139238 4.3869677 -0.11071476
8.6045008 5.2277551 -0.15246652
10.721497 6.6094265 -0.24158657
13.411899 8.3616486 -0.23683621
17.15766 10.799851 -0.11688524
6.3933182 3.7601449 -0.073451623
7.3230104 4.3623114 -0.1093716
8.618269 5.1994133 -0.15170608
10.732005 6.5679255 -0.23941441
13.443749 8.3199635 -0.23731117
17.158289 10.718434 -0.11311401
6.3957834 3.7385428 -0.070876904
7.3280549 4.3365555 -0.10713527
8.6327724 5.1733437 -0.15132438
10.734644 6.523777 -0.23600389
13.48413 8.2866812 -0.23922959
17.156771 10.639895 -0.10934346
6.4122906 3.7235632 -0.072418161
7.3362789 4.3129082 -0.10579243
8.6405602 5.1430039 -0.14942907
10.737089 6.4796791 -0.2325938
13.521073 8.2510815 -0.24066745
17.16498 10.56791 -0.10659982
6.4194932 3.7050622 -0.071387209
7.3411155 4.2871642 -0.1035565
8.6465635 5.1116157 -0.14715573
10.747686 6.4409237 -0.23073214
13.547849 8.2089472 -0.24066253
17.169506 10.493867 -0.10351428
6.4375334 3.6909935 -0.073443152
7.3425441 4.2593522 -0.10042698
8.6590862 5.0844231 -0.14639616
10.758124 6.4021707 -0.2288706
13.574476 8.1667194 -0.24065788
17.185528 10.427324 -0.10162666
6.4331427 3.6652601 -0.068811007
7.3603859 4.2419043 -0.10176508
8.6698418 5.0561547 -0.14525816
10.768404 6.3634167 -0.22700939
13.597591 8.1222925 -0.24017251
17.177591 10.34605 -0.097344659
6.4341011 3.6417787 -0.065722324
7.3742251 4.2233529 -0.10220988
8.6813774 5.0301609 -0.14449905
10.774162 6.3242035 -0.2245293
13.641181 8.0934982 -0.24281418
17.16589 10.266644 -0.092892163
6.4508796 3.6293294 -0.067778789
7.3670526 4.1904411 -0.096847393
8.6986132 5.0059657 -0.14487515
10.774025 6.2792573 -0.22081058
13.667409 8.0509396 -0.24281038
17.174204 10.196138 -0.090321302
6.4522023 3.6049855 -0.064690374
7.36971 4.1637149 -0.094165355
8.7023544 4.973526 -0.1422243
10.785502 6.2415762 -0.2192598
13.679914 8.0000391 -0.2408829
17.18392 10.126729 -0.087922066
17.200909 10.133366 0.55672997
6.4688888 3.592428 -0.066747062
7.3872571 4.1461072 -0.095503904
8.7042789 4.9400945 -0.13919501
10.800205 6.2059388 -0.21832819
13.692222 7.949131 -0.2389556
17.193338 10.057378 -0.08552321
17.222267 10.071138 0.55744392
6.4595709 3.562984 -0.060571991
7.3941078 4.1234274 -0.094162367
8.7103491 4.9109998 -0.13730116
10.808717 6.1688409 -0.2164682
13.72688 7.9146609 -0.24039584
17.197401 9.9887753 -0.08278282
17.23317 10.006501 0.55866432
6.4728246 3.5483792 -0.061600003
7.4098649 4.1046968 -0.095054463
8.7238073 4.884675 -0.13692117
10.804477 6.1220279 -0.21213122
13.7593 7.8758764 -0.24135509
17.189117 9.9093485 -0.078673951
17.231705 9.9309921 0.56069589
6.4737673 3.5240917 -0.058511984
7.4154949 4.0799446 -0.093266413
8.7388639 4.8593011 -0.13691972
10.81023 6.0813432 -0.2096523
13.795027 7.8389621 -0.24279574
17.194197 9.8382015 -0.075934023
17.217871 9.8484917 0.56343693
6.4869065 3.5094144 -0.059540018
7.4042072 4.0453358 -0.087011248
8.7436647 4.8279185 -0.13464811
10.817513 6.0416942 -0.20748319
13.806659 7.7878413 -0.24086969
17.197256 9.766119 -0.073023424
17.226067 9.7793131 0.56485933
6.4976864 3.4909813 -0.059539199
7.4230814 4.0284967 -0.088797301
8.7398491 4.7916145 -0.1304844
10.829763 6.0050321 -0.2062431
13.84555 7.7526913 -0.2427918
17.210342 9.700139 -0.071139559
17.240879 9.7142096 0.56587565
6.4990149 3.4694345 -0.056966159
7.4300914 4.0047469 -0.087456375
8.7409725 4.7583337 -0.12745625
10.84358 5.9693437 -0.2053131
13.886069 7.7183437 -0.24495466
17.300869 9.6789179 -0.076953411
17.357573 9.7078953 0.56090856
6.499084 3.4460685 -0.053878758
7.4482522 3.9888151 -0.08924263
8.7616758 4.7380805 -0.12896918
10.834034 5.9225001 -0.20035784
13.926975 7.6869674 -0.24735841
17.42445 9.6797352 -0.08618886
17.481482 9.7086334 0.55543405
6.505271 3.4274416 -0.05284936
7.446629 3.9601953 -0.085668303
8.759141 4.7028799 -0.12518437
10.830362 5.8770719 -0.19633175
13.969049 7.6532159 -0.24976239
20.122423 11.135177 -0.34926984
6.5224848 3.4127371 -0.05490699
7.4448786 3.9316289 -0.082094327
8.7684298 4.6744928 -0.12404887
10.845422 5.8424087 -0.19571197
14.011042 7.6192513 -0.25216654
20.124485 11.050454 -0.34584776
6.5319219 3.3959413 -0.054906793
7.4600191 3.9126287 -0.082987517
8.77075 4.6422625 -0.12139978
10.858634 5.8067331 -0.19478282
14.054681 7.5860534 -0.25481153
20.131409 10.968746 -0.34293917
6.5287657 3.3698421 -0.050790869
7.4716902 3.8916724 -0.082987428
8.7694998 4.6081586 -0.11799396
10.852699 5.7604971 -0.19044782
14.087821 7.5468621 -0.25601396
20.12752 10.881351 -0.33900481
6.5312862 3.3492999 -0.048732929
7.4832869 3.8706787 -0.082987465
8.7784281 4.5797892 -0.11685876
10.85521 5.7191281 -0.18766108
14.113878 7.5037031 -0.25625458
20.130243 10.797926 -0.33575508
6.5550513 3.3381124 -0.052848909
7.4828315 3.8431056 -0.079860546
8.7975883 4.5570531 -0.11799426
10.847142 5.6721287 -0.18301682
14.131062 7.4557123 -0.25529301
20.136114 10.71651 -0.33284786
6.5608411 3.3193684 -0.05182017
7.482255 3.8155825 -0.076733857
8.8045912 4.5276885 -0.116481
10.861453 5.6374683 -0.18239811
14.16205 7.4152207 -0.25625575
20.15041 10.639918 -0.33079627
6.5699663 3.3024483 -0.05182052
7.4907413 3.7957289 -0.076287545
8.8031778 4.4971776 -0.11345407
10.858211 5.5976372 -0.17899267
14.195776 7.3818588 -0.25794014
20.150368 10.564236 -0.32771873
6.5653925 3.2782238 -0.047705136
7.5020008 3.7746718 -0.076288119
8.8030109 4.4641495 -0.11042766
10.875741 5.5648131 -0.1789936
14.282636 7.3709078 -0.26659924
20.151739 10.481185 -0.32447064
6.571907 3.2576993 -0.046676874
7.514914 3.7544799 -0.076735541
8.816597 4.4385052 -0.11042854
10.879175 5.5245547 -0.17651767
14.383622 7.3668442 -0.27718255
20.150997 10.397317 -0.32105181
6.5859647 3.2434316 -0.04822097
7.5122151 3.7261021 -0.073162667
8.8266163 4.4109902 -0.1096728
10.870187 5.4779186 -0.17187424
14.505859 7.3731856 -0.29065216
20.158724 10.318197 -0.31848872
6.6013803 3.2264128 -0.049765404
7.5151315 3.6994176 -0.070930026
8.835454 4.3812642 -0.1085387
10.881135 5.4397726 -0.17063749
14.527218 7.3235121 -0.29017332
20.157206 10.230376 -0.31489983
6.6016073 3.2049325 -0.047193784
7.5295234 3.6800568 -0.07182458
8.8330326 4.3474231 -0.10513446
10.885812 5.4005475 -0.16847177
14.529556 7.2669835 -0.28728995
20.146523 10.14233 -0.3106271
20.359892 10.247565 0.41385481
6.6009417 3.1808097 -0.044107936
7.5369086 3.6570873 -0.070932403
8.8357134 4.3163242 -0.10286555
10.895613 5.3640361 -0.16723506
14.570585 7.2303414 -0.28969759
20.101704 10.037316 -0.30310464
20.138969 10.052116 0.42835215
6.6113324 3.1646304 -0.044623688
7.5442085 3.634105 -0.070040464
8.8487854 4.2905636 -0.10286725
10.8894 5.3194985 -0.1632119
14.554797 7.1648664 -0.28440991
20.09375 9.9515686 -0.29917473
20.152374 9.9769707 0.42946321
6.6130362 3.144073 -0.042566828
7.5486121 3.6123629 -0.068701677
8.8552046 4.2647028 -0.10173375
10.883111 5.2792401 -0.15949838
14.571933 7.1219296 -0.28393182
19.969908 9.8163137 -0.28446808
20.138994 9.8967733 0.43189257
6.6215806 3.126981 -0.042568143
7.5470147 3.5850246 -0.065576307
8.8610611 4.2353778 -0.1002221
10.892451 5.242815 -0.15826246
14.555635 7.0567093 -0.27864465
20.082439 9.7915049 -0.29217091
20.135685 9.8137751 0.4339157
6.6222916 3.1037819 -0.039997295
7.5505476 3.5603185 -0.063791215
8.861515 4.2034607 -0.097575411
10.908745 5.2098689 -0.15826525
14.53904 6.9916949 -0.27335757
20.127073 9.7326031 -0.29337394
20.135603 9.7326956 0.43573549
6.6202865 3.0815611 -0.036912054
7.559236 3.538192 -0.063346311
8.8671331 4.1741633 -0.096063979
10.905391 5.1673331 -0.15486212
14.550708 6.9407873 -0.27191868
20.193016 9.6839838 -0.29663005
20.212412 9.6893148 0.43319419
6.6264553 3.0600553 -0.035884861
7.5753784 3.5183773 -0.064688623
8.8697262 4.1418715 -0.093796238
10.906207 5.1249542 -0.15207881
14.54898 6.8806868 -0.26855654
20.283762 9.6429863 -0.30211064
20.393267 9.6917038 0.42487168
6.6277537 3.0395691 -0.033828724
7.5610652 3.4852157 -0.05843674
8.8786478 4.1142945 -0.093042016
10.904271 5.0834212 -0.14898565
14.535152 6.8178177 -0.26375109
20.261429 9.5514421 -0.29698569
6.6346374 3.0206928 -0.033316225
7.565454 3.4624653 -0.057098877
8.8939447 4.0913672 -0.093801595
10.904943 5.04531 -0.14651197
14.527138 6.7608075 -0.2599079
20.183117 9.4378223 -0.28672892
6.6550069 3.009304 -0.03691962
7.5720263 3.4394805 -0.056207679
8.8902407 4.0578756 -0.090398811
10.913395 5.008954 -0.14527707
14.487622 6.6864324 -0.25173628
20.062513 9.3012152 -0.27236745
6.6464448 2.9820731 -0.031777021
7.5785131 3.4164855 -0.055317011
8.8792753 4.0211291 -0.085482582
10.914549 4.9692516 -0.14280395
14.494536 6.6342154 -0.24981783
20.009823 9.1975384 -0.26450646
6.652699 2.964056 -0.031264644
7.5884504 3.3951216 -0.055319719
8.889533 3.9943931 -0.085107483
10.911952 4.9279418 -0.13971168
14.490429 6.5770359 -0.24645668
19.989206 9.1093597 -0.25972497
6.6689234 2.9473329 -0.033325288
7.588172 3.3677762 -0.052642267
8.8985052 3.965512 -0.084354319
10.909938 4.8850508 -0.13661982
14.505177 6.5259395 -0.24550106
20.038542 9.0496893 -0.26144487
6.6838512 2.9332569 -0.03538559
7.5801921 3.338311 -0.048178002
8.9103498 3.9395409 -0.084357947
10.921382 4.8504167 -0.13600518
14.496987 6.4672704 -0.24165931
20.031767 8.9683504 -0.25803286
6.6916971 2.9159286 -0.035388093
7.5906706 3.3198807 -0.048627514
8.9012365 3.9072535 -0.080198646
10.916797 4.8125749 -0.13291299
14.479271 6.4100022 -0.2368553
19.989017 8.8789549 -0.25154087
6.6959553 2.8969998 -0.034361791
7.6002712 3.2984719 -0.048630737
8.8967361 3.8740745 -0.076796949
10.927979 4.7779374 -0.13229874
14.485102 6.358078 -0.23493817
19.959686 8.788311 -0.24607658
6.6854515 2.8682885 -0.028705437
7.6120534 3.2767482 -0.04908089
8.9088392 3.8467999 -0.07680124
10.918072 4.7320499 -0.12796903
14.48084 6.2990866 -0.23157857
19.975138 8.7140398 -0.24471889
6.701931 2.8548393 -0.031280726
7.6179328 3.253701 -0.048191033
8.9184685 3.8200059 -0.076426782
10.921719 4.6942677 -0.12611642
14.482597 6.2456727 -0.22918095
20.00349 8.6493654 -0.24472956
6.7103114 2.8356199 -0.03128396
7.6129918 3.2259974 -0.04462073
8.9298077 3.7939589 -0.076431192
10.921591 4.6549454 -0.12364485
14.476859 6.1891499 -0.22582161
20.035276 8.5861835 -0.24508275
6.714282 2.8166776 -0.030257981
7.6222649 3.2045112 -0.044624485
8.9266157 3.7616801 -0.073408514
10.930382 4.6195688 -0.12272169
14.470881 6.1327434 -0.22246243
20.055855 8.5181618 -0.24440978
6.7150187 2.7953045 -0.02820335
7.6310053 3.1840694 -0.044628173
8.922739 3.7307618 -0.070385635
10.936523 4.5850568 -0.12148883
14.474674 6.0833654 -0.2205462
20.078476 8.4549103 -0.24407892
6.7152834 2.7748709 -0.026148649
7.6437254 3.1640351 -0.045525648
8.9301453 3.7031794 -0.069633685
10.917739 4.5381627 -0.11592112
14.446291 6.0179062 -0.21430141
20.102249 8.3883429 -0.24374904
6.736238 2.7598963 -0.029753946
7.6316414 3.1323566 -0.040169206
8.9325562 3.6720092 -0.067746721
10.93226 4.5034842 -0.11592782
14.466212 5.9702797 -0.21431063
20.149223 8.3276196 -0.24547315
6.7363644 2.7394433 -0.027699459
7.6333799 3.1078315 -0.038386539
8.9451923 3.6466668 -0.068130314
10.933185 4.4651337 -0.11376676
14.426277 5.9006524 -0.20662327
20.176224 8.2623491 -0.24548623
6.756464 2.7261467 -0.03130465
7.6454067 3.0888329 -0.039284285
8.942667 3.6166327 -0.065486409
10.929623 4.4269824 -0.11098626
14.421864 5.8486276 -0.20374587
20.197979 8.1987419 -0.24515688
6.7510848 2.7034962 -0.027706873
7.6560073 3.0679665 -0.039735548
8.935091 3.583138 -0.061707661
10.930246 4.3887239 -0.10882556
14.42552 5.7974114 -0.2018313
20.224533 8.1332932 -0.24517073
6.7553229 2.6826577 -0.026681913
7.6556826 3.0427022 -0.037506517
8.9510717 3.5592256 -0.062848546
10.928885 4.3497739 -0.10635544
14.414233 5.7403269 -0.19799283
20.23605 8.0618534 -0.24381623
6.7695203 2.6679518 -0.028743858
7.6588783 3.0189123 -0.036171082
8.9523687 3.5294526 -0.060962163
10.923692 4.3094282 -0.10326612
14.402707 5.6833858 -0.19415461
20.284363 8.0050697 -0.24588391
6.7714539 2.6472931 -0.02720445
7.6615596 2.9962127 -0.034835424
8.9457283 3.4981353 -0.057561953
10.928719 4.2751474 -0.10203457
14.386355 5.627408 -0.189835
20.308952 7.9426098 -0.2458982
6.7837524 2.6317832 -0.028752146
7.6682129 2.973851 -0.034393713
8.9486217 3.4691479 -0.056054167
10.923217 4.2349229 -0.098945588
14.378057 5.5722036 -0.18647827
20.338324 7.8782339 -0.24625579
6.7859054 2.6101778 -0.027213173
7.6747856 2.9514756 -0.033952132
8.9349089 3.4338288 -0.051140737
10.928614 4.1990433 -0.097714782
14.384357 5.5228148 -0.18504597
20.363758 7.8122983 -0.24627163
6.7800384 2.5876942 -0.023616062
7.6812792 2.929081 -0.033510681
8.9522381 3.4105299 -0.052661005
10.92649 4.1603537 -0.095245548
14.368196 5.4649887 -0.18072747
20.396416 7.7491031 -0.24697237
6.7939692 2.5727811 -0.025678454
7.6868706 2.9088457 -0.033068806
8.9446239 3.3807466 -0.049260873
10.91927 4.1236362 -0.092156142
14.364966 5.4174199 -0.17833225
20.437559 7.6966062 -0.24869801
6.7969975 2.5537379 -0.024654001
7.676774 2.88028 -0.028606759
8.9599476 3.3566744 -0.050402828
10.92425 4.0878406 -0.090926066
14.359519 5.3640375 -0.17545772
20.507175 7.647016 -0.25282124
6.8140273 2.5356565 -0.027231969
7.6929569 2.8591053 -0.030400088
8.9485254 3.3197088 -0.045869026
10.930315 4.0487537 -0.089696743
14.336887 5.2993851 -0.17017886
20.60532 7.5999765 -0.25934204
6.8042173 2.5119267 -0.022606282
7.6972857 2.8360074 -0.029512286
8.9599619 3.2942333 -0.046254445
10.9313 4.0116248 -0.087847531
14.342162 5.2503366 -0.16874766
20.652254 7.5412869 -0.26141319
6.8106647 2.4942014 -0.022611098
7.711741 2.8190637 -0.031304635
8.9685183 3.270668 -0.046260871
10.925376 3.9758186 -0.085068651
14.338161 5.2031174 -0.16635357
20.711586 7.4944816 -0.26485151
6.8152347 2.4758031 -0.022101332
7.70858 2.7932942 -0.028630158
8.9723902 3.2424703 -0.045132857
10.920498 3.9367871 -0.08229053
14.320632 5.1461387 -0.16203634
20.878334 7.478085 -0.27787367
6.8258677 2.4574637 -0.02313605
7.7145047 2.7708266 -0.028189575
8.9780102 3.2149293 -0.044383429
10.913603 3.8971694 -0.079203159
14.30661 5.0906549 -0.15820053
20.966261 7.4328065 -0.2837106
6.8339577 2.4403083 -0.023655666
7.7258677 2.7502797 -0.029089598
8.9686975 3.1821976 -0.040606461
10.932657 3.8667676 -0.080451488
14.288608 5.0340157 -0.15388381
21.031532 7.3791089 -0.28749448
6.8225546 2.4142869 -0.018516071
7.7316375 2.7277646 -0.028649075
8.9740953 3.1547031 -0.039857313
10.932942 3.8298182 -0.07860294
14.296639 4.9866366 -0.15293485
21.00247 7.2925763 -0.28272387
6.8341632 2.3983803 -0.020065069
7.7502351 2.7096596 -0.031336222
8.9738188 3.1252902 -0.037972797
10.921865 3.7890759 -0.074896835
14.293228 4.9353981 -0.15054299
20.976814 7.207624 -0.27829573
6.8497057 2.3827174 -0.022643549
7.7370219 2.6819212 -0.026428275
8.978569 3.0991087 -0.037223537
10.91006 3.7501078 -0.071190067
14.281333 4.8839359 -0.14718835
20.960989 7.1301532 -0.27489358
6.8483934 2.3623891 -0.020590821
7.7536383 2.6630979 -0.028668821
8.9836636 3.0716147 -0.03647472
10.913646 3.7146051 -0.069961548
14.262448 4.8278589 -0.14287245
20.893064 7.0318151 -0.26670149
6.8568025 2.3432457 -0.021111656
7.7572441 2.6399 -0.027782233
8.9886589 3.044116 -0.035726249
10.909595 3.6766391 -0.067494504
14.258414 4.7769403 -0.14048114
20.881472 6.9527383 -0.26364318
6.8590164 2.3241448 -0.020088313
7.7700291 2.6197333 -0.029129822
8.9823542 3.0129533 -0.032706939
10.91854 3.6430337 -0.067195423
14.254183 4.7260957 -0.13809004
20.831669 6.8614793 -0.25716284
6.8525772 2.3001957 -0.016492981
7.7734733 2.5965073 -0.028243287
8.9890051 2.986089 -0.032337099
10.9048 3.602129 -0.063180156
14.242191 4.672904 -0.1347371
20.800436 6.7767458 -0.25239381
6.8693681 2.2858403 -0.019586241
7.7712622 2.5715044 -0.026016844
8.9974327 2.9598005 -0.032345865
10.90407 3.5655558 -0.06133296
14.226203 4.6186371 -0.13090295
20.780239 6.6959372 -0.24865176
6.8756609 2.2660136 -0.019592943
7.7745304 2.5482972 -0.025130747
9.0057669 2.9334865 -0.032354783
10.905084 3.5296133 -0.059795566
14.225142 4.5693002 -0.12899362
20.797741 6.6272807 -0.2483326
6.886827 2.2497814 -0.02114273
7.7795763 2.5256715 -0.024691546
8.9990091 2.9024734 -0.029335901
10.91351 3.4960463 -0.059497297
14.220101 4.518837 -0.12660348
20.773123 6.5455947 -0.24424888
6.8763642 2.2247708 -0.01651869
7.7919927 2.5053303 -0.0260396
9.0015116 2.8744237 -0.028209833
10.910483 3.4589818 -0.057340872
14.214865 4.4684582 -0.12421346
20.702452 6.4501419 -0.23605871
6.8800097 2.206248 -0.016010545
7.8099403 2.4866235 -0.028728051
9.0095472 2.8480961 -0.028219189
10.903531 3.4208229 -0.054565325
14.201828 4.4158745 -0.12086134
20.665676 6.3656378 -0.23094881
22.880844 7.0311961 0.35524976
6.8878632 2.1869357 -0.016532207
7.7979574 2.4588585 -0.024268167
9.0174932 2.8217368 -0.0282287
10.890747 3.381057 -0.050860591
14.184777 4.3622794 -0.11702826
20.674374 6.295156 -0.22994629
6.8987913 2.1705835 -0.018082431
7.7933369 2.4334092 -0.021595623
9.0215797 2.7942395 -0.027481427
10.885385 3.3436465 -0.048394982
14.156084 4.3054838 -0.11175216
20.6637 6.2190399 -0.22723292
22.613203 6.7894983 0.37173709
6.9025288 2.1510589 -0.017574945
7.8051319 2.4140465 -0.022943791
9.02141 2.7669594 -0.025976671
10.890775 3.3112743 -0.047787007
14.145563 4.2567039 -0.10888083
20.602007 6.1319404 -0.2200689
22.664434 6.7282591 0.37008715
6.8929262 2.1287141 -0.013465267
7.8134422 2.3924353 -0.023398919
9.0328465 2.7416475 -0.026743561
10.88134 3.2728732 -0.044702303
14.139316 4.2069149 -0.10649188
20.537075 6.0408821 -0.21256414
22.708879 6.6608233 0.3688412
6.8986435 2.1088021 -0.013472858
7.8160534 2.3691914 -0.022513691
9.0347528 2.7135983 -0.025618244
10.881251 3.237283 -0.043166209
14.136693 4.1582999 -0.10458422
20.575268 5.9797006 -0.21430118
22.683933 6.5735426 0.37124851
6.9056139 2.0912895 -0.013994258
7.8185806 2.3459458 -0.021628782
9.0422297 2.6871519 -0.025628496
10.869617 3.198514 -0.039771941
14.130062 4.1086826 -0.10219559
20.548018 5.9000669 -0.2102197
22.573994 6.4628477 0.37812147
6.9149189 2.0723629 -0.015031341
7.8191447 2.3221862 -0.020297088
9.0590754 2.6633017 -0.027531493
10.874967 3.1646094 -0.039165437
14.100276 4.0527987 -0.096920229
20.512764 5.8185592 -0.20545395
22.552116 6.3774238 0.38032523
6.9292274 2.0568304 -0.017611383
7.8233809 2.2994709 -0.019859018
9.0587969 2.6347029 -0.026027936
10.887817 3.1327775 -0.039797969
14.09707 4.0044875 -0.095013171
20.465637 5.73423 -0.1996614
22.672518 6.3310523 0.37501779
6.919755 2.0327525 -0.013502888
7.8350649 2.2787802 -0.021208394
9.0527248 2.6045945 -0.023389257
10.879575 3.0952339 -0.037023779
14.101354 3.9582984 -0.094068721
20.437401 5.6554637 -0.19558075
22.704113 6.2600799 0.37437877
6.9264798 2.0151446 -0.014024716
7.8391457 2.256026 -0.020770676
9.0636129 2.5791023 -0.024156975
10.865455 3.0562613 -0.033320326
14.078597 3.9049995 -0.089756057
20.431961 5.5830722 -0.19355415
22.689129 6.176702 0.3761754
6.9224343 1.9926549 -0.011460306
7.8412604 2.2327659 -0.01988627
9.0630207 2.5505638 -0.022654118
10.860736 3.0199172 -0.031165751
14.074832 3.8569255 -0.08784961
20.36455 5.4946756 -0.18605073
6.9365139 1.9769648 -0.0140406
7.8319654 2.2065873 -0.016321087
9.0718288 2.5245113 -0.023043752
10.865442 2.9861157 -0.030560186
14.055507 3.8049464 -0.084018596
20.389383 5.4306488 -0.18676302
6.9472923 1.9583282 -0.015592947
7.8414569 2.1853065 -0.017224167
9.0710306 2.4960012 -0.021540867
10.868114 2.9518147 -0.029644826
14.047518 3.756083 -0.08163131
20.371508 5.3557277 -0.18371052
6.9331613 1.9354156 -0.010454991
7.8527675 2.1644545 -0.018574206
9.0701284 2.4675171 -0.020038212
10.874493 2.9184861 -0.029349195
14.031638 3.7053795 -0.07828176
20.318539 5.2723093 -0.177577
6.9360576 1.9158452 -0.0099487454
7.8580561 2.14326 -0.018583428
9.0802279 2.4432244 -0.020806305
10.868837 2.883949 -0.027194528
14.022726 3.658926 -0.075893991
20.283764 5.1973515 -0.17315398
6.9386506 1.8972267 -0.0094420798
7.8559728 2.1190751 -0.016805954
9.0886669 2.4170897 -0.021196533
10.863459 2.847826 -0.02504082
14.014177 3.6103761 -0.073507257
20.280479 5.1269202 -0.17147145
6.9491563 1.8785051 -0.010994883
7.8519039 2.0944686 -0.014581854
9.1008368 2.3918321 -0.022344133
10.865629 2.8136122 -0.024126207
14.001583 3.560993 -0.070639469
20.214909 5.0417485 -0.16431144
6.9516211 1.8598592 -0.010488423
7.8591213 2.072607 -0.015038745
9.0861664 2.3601875 -0.018192165
10.87921 2.7821407 -0.025070308
13.973338 3.5080893 -0.065847039
20.199408 4.9689631 -0.16160235
6.9488249 1.8379749 -0.0084391478
7.8681645 2.0511537 -0.015942503
9.0981445 2.3349025 -0.019339958
10.884991 2.7488077 -0.024775539
13.964214 3.4599147 -0.06346073
20.171982 4.8936329 -0.15786651
6.9492688 1.8189106 -0.0074183079
7.8733344 2.0287867 -0.015952822
9.0966406 2.3064871 -0.017838208
10.90028 2.7176692 -0.026029734
13.96265 3.4136083 -0.062037237
20.113173 4.8114672 -0.15139176
6.9557357 1.7992201 -0.0079423534
7.8632135 2.0029647 -0.012388537
9.1026945 2.2798307 -0.01785066
10.888483 2.6803703 -0.022947533
13.968664 3.3690901 -0.061576385
20.104574 4.7410994 -0.14936797
6.9635921 1.7818354 -0.0089800861
7.8663125 1.9801927 -0.011952237
9.1124897 2.2539997 -0.018620208
10.891973 2.6466029 -0.022343483
13.94738 3.3185577 -0.057747032
20.095707 4.6708522 -0.14734457
6.9869184 1.7657917 -0.014135741
7.8788528 1.9594965 -0.013750196
9.0991735 2.2231011 -0.014847612
10.903063 2.6145189 -0.022978829
13.925895 3.268208 -0.053917818
20.067106 4.5964823 -0.14360936
6.9719954 1.7434047 -0.0089985011
7.8837028 1.9370896 -0.013761003
9.1030159 2.1960249 -0.014481957
10.906319 2.5807233 -0.022375135
13.923627 3.222199 -0.052494992
20.034315 4.5215302 -0.13953209
6.9706287 1.7220016 -0.0074645015
7.8961043 1.9162798 -0.015559349
9.1106062 2.1697478 -0.014873511
10.909451 2.5469346 -0.02177171
13.921191 3.1762331 -0.051072475
20.02463 4.4517837 -0.13750947
6.9839163 1.7056978 -0.010046714
7.8645372 1.8862888 -0.0070802276
9.1161814 2.1430471 -0.014886681
10.916334 2.5139446 -0.021787992
13.906917 3.1279194 -0.048206341
20.010784 4.38133 -0.13514465
6.9822049 1.6852592 -0.0085123433
7.8746338 1.8662226 -0.0084313806
9.1271667 2.1188323 -0.01603505
10.895658 2.477072 -0.017466549
13.888127 3.081104 -0.044857875
19.949146 4.3047562 -0.12866962
6.9896994 1.6677116 -0.0095508229
7.8715124 1.8422989 -0.0066550858
9.1133089 2.0882154 -0.012262805
10.910047 2.4456792 -0.018722434
13.861808 3.0307233 -0.040548198
19.923023 4.2324376 -0.12527815
6.9859519 1.6469152 -0.0075020469
7.8872099 1.8233008 -0.0093471864
9.1183376 2.0628381 -0.012275709
10.916252 2.4143376 -0.018738378
13.866039 2.9888318 -0.040087719
19.911636 4.1666064 -0.12325475
6.9895296 1.6285919 -0.0075114397
7.8934979 1.8012388 -0.0098055648
9.1254692 2.0364792 -0.012667984
10.903269 2.3775945 -0.015657235
13.854948 2.9417737 -0.03770344
19.869322 4.0916619 -0.1184938
6.9953127 1.6086898 -0.0080366312
7.8958812 1.7784185 -0.009370327
9.1228628 2.0082591 -0.011167755
10.901795 2.3431587 -0.014435309
13.855387 2.8970261 -0.036763243
19.830627 4.0178037 -0.11407551
7.0006633 1.5906925 -0.0085608317
7.9000983 1.7559564 -0.0093820821
9.1355991 1.9829435 -0.012695891
10.911851 2.3109219 -0.015072058
13.847856 2.8508587 -0.034860771
19.826914 3.9507663 -0.11273941
7.0101118 1.5714284 -0.010115576
7.9061556 1.7338265 -0.0098408451
9.1173382 1.9519311 -0.0081672538
10.910133 2.2765107 -0.01385026
13.844059 2.8054876 -0.033439726
19.791582 3.8781226 -0.10866395
6.9982209 1.5503001 -0.006008205
7.9140563 1.7120155 -0.01074662
9.1202211 1.9248558 -0.0078028711
10.916072 2.24352 -0.013867891
13.875284 2.7664254 -0.036350809
19.748121 3.804374 -0.10390379
6.9961066 1.5290039 -0.0044750897
7.9142022 1.6888142 -0.0098649822
9.1191387 1.897108 -0.0066814902
10.900486 2.206773 -0.010477873
13.843793 2.7162731 -0.031560846
19.688667 3.728229 -0.097774096
7.0164351 1.5135969 -0.0091169272
7.9200296 1.6666156 -0.010324127
9.1198931 1.8697087 -0.0059390068
10.90618 2.1738164 -0.010495828
13.855164 2.6737072 -0.032065693
19.672115 3.6599088 -0.095411457
7.0143423 1.4913051 -0.0075846696
7.9086661 1.6403596 -0.0067618634
9.1285191 1.8422855 -0.0067114872
10.904241 2.1378913 -0.0092754466
13.831498 2.6230438 -0.028239848
19.651911 3.587904 -0.092708267
7.0193119 1.4732027 -0.0081095984
7.92202 1.6194313 -0.0090089431
9.1213245 1.8136104 -0.0044548791
10.915545 2.10588 -0.010223231
13.826871 2.5779321 -0.026819685
19.638773 3.520551 -0.090688579
7.0188093 1.4522176 -0.007091633
7.9256821 1.596882 -0.0090215616
9.1179018 1.785627 -0.0029554302
10.918936 2.0725679 -0.0099318605
13.826002 2.5335045 -0.025881108
19.586031 3.4470441 -0.085244305
7.0083776 1.4316837 -0.0034993051
7.9388952 1.5758272 -0.011268842
9.13766 1.7613294 -0.0059994208
10.916354 2.0383251 -0.0087111657
13.836742 2.490952 -0.026387045
19.529058 3.3733366 -0.079457529
7.0228519 1.4140835 -0.0065984479
7.9268184 1.5519738 -0.0077057956
9.1435452 1.736171 -0.0063924268
10.909492 2.0051696 -0.0068701315
13.835231 2.4487104 -0.025447752
19.534353 3.3128145 -0.079149179
7.0333018 1.3967901 -0.0086677009
7.9263897 1.5288259 -0.0068248371
9.1514931 1.7099326 -0.00716514
10.914482 1.9721873 -0.0068891123
13.818188 2.4019907 -0.022584217
19.504438 3.2438431 -0.075760573
7.0286865 1.3752453 -0.0066208583
7.9258785 1.5056933 -0.0059441845
9.1399193 1.6808146 -0.004151844
10.931087 1.9409012 -0.0087672425
13.828475 2.3594258 -0.023090612
19.490038 3.1774065 -0.073741972
7.031364 1.3567818 -0.0066316505
7.9349341 1.4839565 -0.0072981496
9.1418447 1.6537298 -0.0037889369
10.931942 1.9072865 -0.0081668384
13.791439 2.3101008 -0.017820423
19.424097 3.1038411 -0.067270607
7.0265946 1.3352978 -0.0045848796
7.9419851 1.4618955 -0.0082053365
9.1572905 1.6285434 -0.0060764966
10.926806 1.8728625 -0.0066372389
13.817144 2.2697828 -0.020252995
19.373653 3.0329413 -0.062169578
7.031054 1.3171052 -0.0051105097
7.9450984 1.4392713 -0.0082188006
9.1570854 1.6011479 -0.0053352821
10.921547 1.8384906 -0.0051076761
13.842718 2.2293003 -0.022685884
19.370331 2.9688227 -0.061179101
7.0452909 1.298214 -0.0082110139
7.940402 1.4156159 -0.0064446446
9.1684647 1.575313 -0.0068657692
10.925956 1.8054672 -0.0051275203
13.793355 2.178827 -0.015971731
19.354925 2.9031866 -0.059161402
7.0457954 1.2794507 -0.0077074501
7.9375529 1.3922502 -0.0051174201
9.1563826 1.5464082 -0.0038531306
10.93417 1.772927 -0.0057671433
13.806812 2.1367912 -0.016960775
19.331373 2.836679 -0.056458842
7.0462365 1.2606922 -0.0072040725
7.9517446 1.3733643 -0.007811584
9.1477556 1.5207695 -0.0015959664
10.934015 1.7426769 -0.0051657166
13.803827 2.097023 -0.016021533
19.350306 2.7820106 -0.05752096
7.042779 1.2414662 -0.005671239
7.9603534 1.3514155 -0.0091663562
9.1666622 1.4958345 -0.0046416791
10.930244 1.7086524 -0.0039464501
13.801236 2.0529764 -0.015085215
19.294649 2.7119145 -0.052078046
7.0396008 1.2193536 -0.004140391
7.9477277 1.3257629 -0.0056054192
9.1739454 1.4680538 -0.0054165637
10.93047 1.673484 -0.0033482742
13.80663 2.0077462 -0.015113319
19.310339 2.6474655 -0.052803744
7.0417609 1.2008548 -0.0041519511
7.9464917 1.3026745 -0.0047257673
9.1770725 1.4411288 -0.0054334123
10.938231 1.6408747 -0.0039887005
13.819503 1.9655446 -0.016103229
19.250206 2.5775137 -0.047018621
7.0535722 1.1824476 -0.0067379405
7.9527969 1.2816058 -0.0056331358
9.1760521 1.4151062 -0.0046921768
10.939803 1.6092309 -0.0036987083
13.80042 1.9219388 -0.013240242
19.244915 2.5172112 -0.046028033
7.0421596 1.1624479 -0.0031465923
7.9533424 1.2587357 -0.0052005649
9.1711836 1.3873376 -0.003194625
10.947339 1.5765671 -0.004339397
13.781413 1.8763309 -0.010378535
19.231831 2.4530101 -0.04435458
7.0480766 1.1433724 -0.0041884375
7.9672613 1.2384266 -0.0078962464
9.1777964 1.3621796 -0.003968392
10.940837 1.5440888 -0.0028102121
13.789664 1.8358853 -0.010886363
19.230085 2.3932514 -0.043706998
7.049984 1.1248457 -0.0042003798
7.9579563 1.2145389 -0.0052289646
9.1883688 1.3360292 -0.0055004829
10.950116 1.5115882 -0.0037612794
13.799973 1.7934387 -0.011636333
19.220518 2.3296418 -0.042376645
7.0558681 1.1047382 -0.0052431892
7.9563251 1.1914849 -0.0043497514
9.181263 1.3081049 -0.0036246541
10.945518 1.4777042 -0.0025431842
13.806184 1.7505537 -0.011905211
19.198824 2.2649674 -0.040018577
7.0614963 1.0865548 -0.0062849415
7.9604349 1.1689949 -0.0048116841
9.1760092 1.2804263 -0.0021274814
10.952602 1.4449626 -0.0031847809
13.802361 1.7067261 -0.010970481
19.196733 2.2023144 -0.039373778
7.0518446 1.0649787 -0.0032099241
7.9664078 1.1466627 -0.0057205278
9.1843491 1.2540244 -0.0032813642
10.955637 1.4118332 -0.0032066754
13.810248 1.6639967 -0.011480538
19.154726 2.1361554 -0.035302732
7.061193 1.0471157 -0.0052812039
7.9723053 1.1242933 -0.0066297092
9.1847715 1.2269024 -0.0029206353
10.950683 1.3780082 -0.0019889425
13.821942 1.6215785 -0.012472208
19.144241 2.0730233 -0.033973314
7.0629449 1.0265942 -0.0052949484
7.976182 1.1017275 -0.0070918351
9.1968422 1.2007545 -0.0048321835
10.941669 1.3439016 -0.00015163589
13.825577 1.578427 -0.012501179
19.121616 2.0090132 -0.031616051
7.0606127 1.0077096 -0.0042779362
7.9780374 1.0789897 -0.0071071871
9.2049093 1.1742193 -0.0059865611
10.940414 1.3104985 0.00044581867
13.809268 1.5336986 -0.010122616
19.134518 1.9479834 -0.03234303
7.0737824 0.98807591 -0.0073805549
7.977869 1.056095 -0.0066757561
9.1893873 1.1458489 -0.0025966184
10.954802 1.2783078 -0.0014364008
13.808636 1.490296 -0.009670388
19.135284 1.8859901 -0.032042522
7.0597553 0.96833545 -0.0032751395
7.9892869 1.0340593 -0.0089263804
9.193347 1.1190163 -0.0029938035
10.965137 1.2457404 -0.0026988108
13.815773 1.4474803 -0.010181586
19.135834 1.8240086 -0.031742219
7.9869375 1.0121428 -0.0080472939
9.2010393 1.0937846 -0.0041476847
10.947651 1.212864 0.0003788553
13.814692 1.4062392 -0.0097282901
19.151861 1.7662106 -0.032810867
7.9845896 0.98910892 -0.0071689896
9.2067795 1.0670271 -0.0049238661
10.945933 1.1794928 0.00097567472
13.825499 1.3636341 -0.010721473
19.136084 1.703168 -0.031140247
7.9782691 0.96585315 -0.0053968406
9.2104664 1.0401142 -0.0053216051
10.944098 1.1461415 0.0015724404
13.804452 1.3190082 -0.0078620035
19.120081 1.6402502 -0.02946985
7.9815969 0.94322217 -0.0058599031
9.2101383 1.0129513 -0.0049618827
10.95398 1.1135037 0.00030922753
13.810995 1.2761534 -0.0083741816
19.143641 1.5797579 -0.031227164
7.990685 0.92089772 -0.0076642879
9.1881456 0.98460478 -0.00043637172
10.951913 1.0801523 0.00090556213
13.817388 1.2332623 -0.0088864053
19.103323 1.5156568 -0.027500773
7.993855 0.89821005 -0.0081276204
9.2072363 0.95854878 -0.00386431
10.961567 1.0474323 -0.00035794405
13.799838 1.1891174 -0.006509155
19.110533 1.4542758 -0.027887667
7.979423 0.87465245 -0.0045676073
9.2066231 0.93141818 -0.0035049701
10.94348 1.0133239 0.0027178873
13.801964 1.146049 -0.0065402188
19.101612 1.3921036 -0.026903752
7.9668541 0.85128766 -0.0014547781
9.2078762 0.90438455 -0.003524584
10.952904 0.98057866 0.0014539316
13.799972 1.1027981 -0.0060898159
19.080524 1.3294809 -0.024891894
7.9717307 0.82874423 -0.0023654571
9.1953001 0.87678003 -0.0008930231
10.954318 0.94744909 0.0014297203
13.789892 1.0592455 -0.0046763145
19.083107 1.2679785 -0.024936901
7.9687376 0.80587327 -0.0014880464
9.1983252 0.84986025 -0.001291615
10.959566 0.9144631 0.00078530412
13.795533 1.0163602 -0.0051897066
19.061579 1.2055879 -0.022925287
7.9870944 0.78376889 -0.0055284053
9.1953688 0.82272154 -0.00055423129
10.944953 0.88077241 0.0032406317
13.793085 0.97317386 -0.0047399043
19.06373 1.1441525 -0.022970861
7.9644585 0.76026469 -0.00018047911
9.2001686 0.79584873 -0.0013317481
10.949968 0.84779197 0.002596088
13.782549 0.92977071 -0.0033268379
19.057697 1.0824724 -0.022330927
9.2048388 0.77029687 -0.0021086042
10.946925 0.81622171 0.0031923372
13.791652 0.88912803 -0.0043210066
19.051371 1.0239114 -0.021689147
9.1898241 0.74289393 0.00090102945
10.951716 0.78320789 0.0025474455
13.76097 0.84534705 -0.00049974286
19.040936 0.96223766 -0.020707104
9.1884279 0.71722829 0.0012604104
10.944505 0.75157821 0.0037634897
13.773763 0.804802 -0.001975958
19.018269 0.90347302 -0.018694349
9.1889334 0.69025946 0.0012397782
10.941171 0.7184124 0.0043582595
13.778518 0.76189274 -0.0024906362
19.019365 0.84219074 -0.018741304
9.1972189 0.66204643 -0.00029721719
10.933788 0.68356591 0.0055716117
13.787121 0.71685427 -0.0034888999
19.0163 0.77779061 -0.018447982
9.1936045 0.63500798 0.00043940515
10.938118 0.65054345 0.0049258531
13.755832 0.67353362 0.00033185803
18.989061 0.71626335 -0.016095353
9.1859684 0.60797036 0.0019335778
10.946283 0.61751741 0.0036598756
13.764098 0.630669 -0.00066526368
19.017403 0.65523922 -0.018543452
9.1860924 0.58101076 0.0019124066
10.938528 0.58439082 0.0048740557
13.772214 0.58774793 -0.0016625472
18.981764 0.59388709 -0.015505292
9.1821957 0.55405271 0.0026487892
10.940535 0.55131245 0.0045378315
13.748416 0.54480457 0.0011943211
18.973808 0.5327453 -0.014867984
9.1782045 0.52712226 0.0033849576
10.934524 0.51825327 0.0054417583
13.752264 0.50190127 0.00067824993
18.985565 0.47156164 -0.01594542
9.1780567 0.50153679 0.0033644862
10.932362 0.48685855 0.0057266071
13.744066 0.46121034 0.0016094061
18.973225 0.41355252 -0.014963199
10.93798 0.4537386 0.0047698142
13.74365 0.41834086 0.0015748653
18.964643 0.35252398 -0.014326498
10.937555 0.42066422 0.0047430168
13.719261 0.37582639 0.0044311285
18.947874 0.29167473 -0.013004158
10.925162 0.38780427 0.0065764771
13.730459 0.33282596 0.0029506891
18.930897 0.23093946 -0.011682029
10.904754 0.3551985 0.0096501783
13.721657 0.29017812 0.0038791311
18.917694 0.17023143 -0.010703178
10.923738 0.32174852 0.006522133
13.708735 0.24768926 0.0052895104
18.912247 0.10940672 -0.010410532
10.926802 0.28861237 0.005874475
13.707574 0.20494434 0.0052540023
18.910572 0.048499435 -0.010461155
10.917902 0.25583026 0.0070873909
13.69039 0.16271669 0.0071459925
18.904703 -0.012271646 -0.010168971
10.90105 0.22503373 0.0095418096
13.704882 0.12160496 0.0051841596
18.882799 -0.069391534 -0.0085025225
10.903774 0.1919367 0.0088937962
13.707249 0.078719117 0.004666084
18.900412 -0.13098145 -0.010269109
10.902436 0.15898347 0.0088657895
13.697563 0.036318626 0.0055936608
18.889933 -0.19150358 -0.0096347174
10.904931 0.12585442 0.0082173226
13.683765 -0.0058375006 0.0070030494
18.883226 -0.25214639 -0.0093437275
10.897442 0.093188673 0.0091194473
13.689652 -0.048886728 0.0060023782
18.836506 -0.31076247 -0.0056220475
13.687456 -0.091562964 0.0059654443
18.849283 -0.37225428 -0.0070470707
13.685112 -0.13423155 0.0059283045
18.830009 -0.43203217 -0.0057273638
13.682618 -0.17689146 0.005890958
18.858271 -0.49457401 -0.0085255802
13.672185 -0.21690747 0.0068193534
18.814911 -0.54971641 -0.0051449449
13.677328 -0.26005208 0.0058175419
18.818888 -0.61081517 -0.0058848392
13.674395 -0.30268437 0.0057795886
18.778921 -0.66885895 -0.0028504503
13.675273 -0.34559882 0.0052593616
18.774532 -0.72929597 -0.0029045842
13.664289 -0.38548017 0.0061869761
18.758244 -0.78577149 -0.0019266936
13.653003 -0.42742664 0.0071126223
18.789194 -0.84903806 -0.0050701378
13.657219 -0.47276846 0.0061077466
18.736267 -0.90848911 -0.0010093944
13.6575 -0.51567698 0.0055867699
18.719131 -0.96772361 -3.500126e-05
18.745998 -1.0248356 -0.0028308099
18.744331 -1.0855331 -0.0032298584
18.730555 -1.1450652 -0.0025993979
18.720539 -1.2049261 -0.0023125233
18.682253 -1.2648118 0.00037441103
18.663898 -1.3236089 0.0013473078
18.645342 -1.3822995 0.0023200996
18.626585 -1.4408835 0.0032928879
18.592161 -1.4944721 0.0056415307
18.576981 -1.5532774 0.0062705576
18.55802 -1.608516 0.0072456044
