# .PCD v0.7 - Point Cloud Data file format
VERSION 0.7
FIELDS x y z
SIZE 4 4 4
TYPE F F F
COUNT 1 1 1
WIDTH 629
HEIGHT 1
VIEWPOINT 0 0 0 1 0 0 0
POINTS 629
DATA ascii
6.323606999999999978e+00 2.271652700000000191e+00 -1.551262600000000047e+00
7.698282700000000034e+00 2.762453600000000176e+00 -1.589820699999999976e+00
9.776779200000000003e+00 3.506370299999999940e+00 -1.645064899999999941e+00
1.347209800000000079e+01 4.826370700000000014e+00 -1.757112299999999960e+00
1.919226499999999902e+01 6.868048199999999603e+00 -1.783381000000000105e+00
2.118678900000000098e+01 7.577628100000000089e+00 -1.179233799999999999e+00
2.108534399999999920e+01 7.533045800000000014e+00 -3.908292099999999825e-01
5.403664599999999929e+00 1.923094199999999976e+00 -1.536867699999999948e+00
6.332547700000000113e+00 2.252429499999999862e+00 -1.551712500000000050e+00
7.686574900000000099e+00 2.731018999999999863e+00 -1.585622800000000110e+00
9.769129799999999975e+00 3.469030099999999894e+00 -1.641936199999999957e+00
1.344978000000000051e+01 4.770739999999999981e+00 -1.752237599999999951e+00
1.914238200000000134e+01 6.782438299999999920e+00 -1.776757099999999978e+00
2.135357899999999987e+01 7.561693700000000185e+00 -1.187188899999999991e+00
2.126349300000000042e+01 7.521453400000000400e+00 -3.936913899999999744e-01
5.406367799999999946e+00 1.903882000000000074e+00 -1.535832499999999934e+00
6.340371600000000107e+00 2.230309500000000167e+00 -1.551712500000000050e+00
7.679389999999999716e+00 2.698319399999999924e+00 -1.582188399999999939e+00
9.777453400000000627e+00 3.433596599999999999e+00 -1.641310499999999895e+00
1.345136300000000062e+01 4.718514899999999734e+00 -1.750287699999999891e+00
1.910576999999999970e+01 6.694490000000000052e+00 -1.771179099999999895e+00
2.156645400000000024e+01 7.552476399999999757e+00 -1.197551400000000044e+00
2.157463999999999871e+01 7.546879299999999624e+00 -3.989620199999999728e-01
5.393567599999999906e+00 1.876126200000000077e+00 -1.530138400000000010e+00
6.350343699999999814e+00 2.207697399999999810e+00 -1.552162299999999995e+00
7.689230000000000231e+00 2.670149100000000164e+00 -1.582188399999999939e+00
9.763845399999999231e+00 3.388672099999999965e+00 -1.636930299999999949e+00
1.344231199999999937e+01 4.660069000000000017e+00 -1.746875299999999909e+00
1.911511799999999894e+01 6.619207399999999630e+00 -1.769784699999999988e+00
2.180915999999999855e+01 7.547830600000000167e+00 -1.209484000000000004e+00
2.202739300000000000e+01 7.614761399999999902e+00 -4.068155900000000047e-01
5.408892200000000372e+00 1.861377000000000059e+00 -1.532726599999999939e+00
6.354326699999999661e+00 2.184248399999999979e+00 -1.551262600000000047e+00
7.696644299999999994e+00 2.642659899999999951e+00 -1.581806499999999893e+00
9.764404300000000703e+00 3.350719900000000084e+00 -1.635053000000000090e+00
1.343971499999999963e+01 4.606691399999999881e+00 -1.744437900000000097e+00
1.913810700000000153e+01 6.552437799999999868e+00 -1.769784699999999988e+00
2.196953800000000001e+01 7.517581500000000361e+00 -1.216915699999999934e+00
5.415678500000000284e+00 1.841538499999999967e+00 -1.532726599999999939e+00
6.347149400000000163e+00 2.157042000000000126e+00 -1.547663299999999964e+00
7.705822900000000253e+00 2.615775300000000136e+00 -1.581806499999999893e+00
9.761075999999999198e+00 3.311540100000000209e+00 -1.632550100000000004e+00
1.342939400000000028e+01 4.550826500000000330e+00 -1.741025599999999951e+00
1.916463699999999903e+01 6.486875099999999783e+00 -1.770133299999999910e+00
2.213754300000000086e+01 7.488843000000000139e+00 -1.224766000000000021e+00
5.418093700000000013e+00 1.822336100000000014e+00 -1.531691300000000089e+00
6.354640999999999984e+00 2.134871500000000033e+00 -1.547663299999999964e+00
7.700015500000000124e+00 2.583866099999999832e+00 -1.578753700000000038e+00
9.766956300000000368e+00 3.275565400000000071e+00 -1.631611499999999992e+00
1.341884399999999999e+01 4.495097200000000015e+00 -1.737613199999999969e+00
1.917960400000000121e+01 6.417403700000000377e+00 -1.769435899999999950e+00
2.249123799999999918e+01 7.521107699999999952e+00 -1.242874299999999987e+00
5.417088999999999821e+00 1.800975699999999957e+00 -1.529620800000000003e+00
6.361686200000000291e+00 2.113785500000000095e+00 -1.547663299999999964e+00
7.693636899999999557e+00 2.553368600000000210e+00 -1.575700799999999902e+00
9.770266499999999965e+00 3.240668499999999952e+00 -1.630360100000000090e+00
1.341860299999999917e+01 4.445575700000000019e+00 -1.735663299999999909e+00
1.919699699999999964e+01 6.352519000000000027e+00 -1.769087300000000029e+00
2.266965300000000028e+01 7.497273899999999713e+00 -1.251352800000000043e+00
5.415690399999999904e+00 1.780589699999999942e+00 -1.527550299999999917e+00
6.372729800000000111e+00 2.092780600000000213e+00 -1.548563099999999970e+00
7.698771500000000323e+00 2.525275000000000158e+00 -1.574937599999999938e+00
9.747731200000000484e+00 3.195465299999999953e+00 -1.624728399999999962e+00
1.338498899999999914e+01 4.382651300000000028e+00 -1.729326099999999977e+00
1.921526499999999871e+01 6.284235999999999933e+00 -1.768738700000000108e+00
2.294058000000000064e+01 7.498145100000000340e+00 -1.264855400000000074e+00
5.435349900000000289e+00 1.763954800000000045e+00 -1.531173700000000082e+00
6.358112300000000161e+00 2.062196000000000140e+00 -1.543164299999999933e+00
7.698637500000000244e+00 2.494013300000000211e+00 -1.573029400000000022e+00
9.759377499999999372e+00 3.159718799999999828e+00 -1.624728399999999962e+00
1.340096300000000085e+01 4.333560000000000301e+00 -1.729326099999999977e+00
1.925713199999999858e+01 6.219884900000000272e+00 -1.770481900000000053e+00
2.320549600000000012e+01 7.490700699999999657e+00 -1.277939399999999948e+00
5.433811699999999689e+00 1.743560999999999916e+00 -1.529103199999999996e+00
6.357849100000000142e+00 2.037611699999999804e+00 -1.541364699999999921e+00
7.709165600000000396e+00 2.467725000000000168e+00 -1.573410999999999893e+00
9.757176400000000527e+00 3.121422100000000199e+00 -1.622538299999999989e+00
1.335549800000000076e+01 4.267424100000000387e+00 -1.721526499999999960e+00
1.927872299999999939e+01 6.152631300000000358e+00 -1.770481900000000053e+00
2.337991900000000101e+01 7.456995000000000040e+00 -1.286103800000000019e+00
5.452755500000000310e+00 1.728668099999999930e+00 -1.532726599999999939e+00
6.368286099999999728e+00 2.017695699999999981e+00 -1.542264599999999986e+00
7.704204599999999736e+00 2.437998499999999957e+00 -1.570739700000000072e+00
9.750521700000000180e+00 3.083689699999999867e+00 -1.619722499999999954e+00
1.334686300000000081e+01 4.215933800000000176e+00 -1.718601599999999952e+00
1.929522300000000001e+01 6.087462399999999718e+00 -1.770133299999999910e+00
2.358738299999999910e+01 7.437073700000000009e+00 -1.296152399999999982e+00
5.445553799999999889e+00 1.706533800000000101e+00 -1.529103199999999996e+00
6.377150499999999944e+00 1.996034400000000097e+00 -1.542714499999999989e+00
7.693929699999999983e+00 2.405235100000000070e+00 -1.566923599999999972e+00
9.748028800000000160e+00 3.045509099999999858e+00 -1.617532399999999981e+00
1.334633600000000087e+01 4.164591299999999663e+00 -1.716651699999999892e+00
1.931635500000000150e+01 6.020067199999999730e+00 -1.770133299999999910e+00
2.380198299999999989e+01 7.413497900000000307e+00 -1.306514900000000035e+00
5.448081000000000174e+00 1.685419900000000082e+00 -1.528067800000000087e+00
6.374771100000000246e+00 1.970882199999999917e+00 -1.540464999999999973e+00
7.707906699999999667e+00 2.380099099999999801e+00 -1.568068400000000029e+00
9.743500700000000236e+00 3.006801400000000069e+00 -1.615029499999999896e+00
1.333044100000000043e+01 4.108619199999999694e+00 -1.712751899999999994e+00
1.932201399999999936e+01 5.947928000000000104e+00 -1.768738700000000108e+00
2.414078699999999955e+01 7.426674399999999565e+00 -1.323681099999999944e+00
5.461029500000000425e+00 1.669604499999999936e+00 -1.530138400000000010e+00
6.376019499999999951e+00 1.946911899999999918e+00 -1.539115299999999964e+00
7.706776099999999907e+00 2.350320799999999988e+00 -1.566160299999999950e+00
9.735041600000000628e+00 2.967014999999999958e+00 -1.611900799999999911e+00
1.331431800000000010e+01 4.052809700000000070e+00 -1.708852100000000096e+00
1.936553400000000025e+01 5.887394399999999806e+00 -1.770830499999999974e+00
2.433282499999999970e+01 7.392869499999999761e+00 -1.332787500000000014e+00
5.461275599999999564e+00 1.648857800000000040e+00 -1.528585400000000094e+00
6.376843499999999665e+00 1.924070100000000005e+00 -1.537765499999999896e+00
7.697610400000000297e+00 2.319651100000000188e+00 -1.562725799999999943e+00
9.737259899999999746e+00 2.932439599999999924e+00 -1.610649299999999950e+00
1.329346499999999942e+01 3.998353499999999894e+00 -1.704464800000000002e+00
1.938495299999999943e+01 5.823138199999999820e+00 -1.770830499999999974e+00
2.456762099999999904e+01 7.375323800000000318e+00 -1.344301299999999921e+00
5.472266699999999595e+00 1.632396299999999911e+00 -1.530138400000000010e+00
6.381653299999999973e+00 1.901240800000000064e+00 -1.537315599999999893e+00
7.698134399999999822e+00 2.290525399999999934e+00 -1.561199199999999898e+00
9.728503200000000462e+00 2.892799399999999910e+00 -1.607520599999999966e+00
1.328070100000000053e+01 3.944011000000000156e+00 -1.701052500000000078e+00
1.940897800000000117e+01 5.756582700000000052e+00 -1.771179099999999895e+00
2.502407499999999985e+01 7.417222999999999900e+00 -1.367852599999999974e+00
5.472654300000000305e+00 1.610688300000000073e+00 -1.528585400000000094e+00
6.386381100000000366e+00 1.878404699999999927e+00 -1.536865699999999890e+00
7.681596299999999822e+00 2.256444699999999859e+00 -1.556238199999999905e+00
9.730959900000000218e+00 2.856599800000000133e+00 -1.606269100000000005e+00
1.328295699999999968e+01 3.894273999999999791e+00 -1.699590099999999993e+00
1.942895499999999842e+01 5.688793200000000105e+00 -1.771179099999999895e+00
2.538335199999999858e+01 7.427416299999999971e+00 -1.386065499999999950e+00
5.464979600000000381e+00 1.588759999999999950e+00 -1.524962099999999987e+00
6.391028900000000235e+00 1.855555499999999913e+00 -1.536415800000000109e+00
7.696966599999999659e+00 2.231809900000000013e+00 -1.557764799999999950e+00
9.725693700000000774e+00 2.818213699999999822e+00 -1.603766199999999920e+00
1.326214399999999927e+01 3.837960499999999886e+00 -1.695202700000000062e+00
1.945635199999999898e+01 5.623146499999999826e+00 -1.771876500000000076e+00
2.555111300000000085e+01 7.379795999999999800e+00 -1.393811200000000028e+00
5.477645400000000109e+00 1.572759900000000099e+00 -1.527032600000000073e+00
6.394952800000000437e+00 1.834932199999999902e+00 -1.535965900000000106e+00
7.686955499999999830e+00 2.202748500000000220e+00 -1.554330200000000106e+00
9.715509400000000184e+00 2.782209200000000049e+00 -1.600637400000000099e+00
1.325505099999999992e+01 3.790814899999999987e+00 -1.692765199999999970e+00
1.949307800000000057e+01 5.567470100000000421e+00 -1.773619400000000068e+00
2.616378999999999877e+01 7.467757200000000317e+00 -1.425945500000000088e+00
5.479113599999999806e+00 1.553533899999999912e+00 -1.525997400000000059e+00
6.382568799999999598e+00 1.807287300000000041e+00 -1.531466800000000017e+00
7.700264500000000290e+00 2.177506699999999906e+00 -1.555474999999999941e+00
9.717557899999999194e+00 2.746127599999999891e+00 -1.599386100000000033e+00
1.324527600000000049e+01 3.738055699999999870e+00 -1.689840599999999915e+00
1.955841600000000113e+01 5.512368200000000051e+00 -1.777802899999999964e+00
2.605704499999999868e+01 7.339027399999999979e+00 -1.418723100000000015e+00
5.494609399999999866e+00 1.534123099999999962e+00 -1.528585400000000094e+00
6.396969300000000302e+00 1.784863099999999925e+00 -1.533266500000000088e+00
7.685874499999999721e+00 2.141598199999999785e+00 -1.550895600000000041e+00
9.720418900000000306e+00 2.706677399999999789e+00 -1.598134500000000013e+00
1.321745800000000060e+01 3.675466500000000192e+00 -1.684478200000000037e+00
1.965239000000000047e+01 5.457482299999999675e+00 -1.784426800000000091e+00
2.638525800000000032e+01 7.322244200000000092e+00 -1.435051999999999994e+00
5.482904900000000303e+00 1.511274800000000029e+00 -1.523926899999999973e+00
6.399402600000000163e+00 1.761489899999999942e+00 -1.532366600000000023e+00
7.695196600000000053e+00 2.115275099999999853e+00 -1.551277199999999912e+00
9.718378100000000686e+00 2.669592600000000093e+00 -1.596257299999999990e+00
1.321871999999999936e+01 3.626152300000000217e+00 -1.683015699999999892e+00
1.969438200000000094e+01 5.395161599999999780e+00 -1.786518599999999957e+00
2.674199700000000135e+01 7.320796500000000151e+00 -1.453055500000000055e+00
5.487886399999999831e+00 1.493082999999999938e+00 -1.523926899999999973e+00
6.412426499999999585e+00 1.743423200000000062e+00 -1.534166200000000035e+00
7.701803199999999627e+00 2.091090900000000197e+00 -1.551277199999999912e+00
9.709559399999999840e+00 2.634390400000000021e+00 -1.593441600000000014e+00
1.321088800000000063e+01 3.579417900000000152e+00 -1.680578499999999975e+00
1.974969700000000117e+01 5.343674199999999708e+00 -1.790004699999999893e+00
2.705020899999999884e+01 7.313906700000000427e+00 -1.468547000000000047e+00
2.712244000000000099e+01 7.323278900000000036e+00 -4.903777200000000169e-01
5.490942500000000059e+00 1.474373900000000015e+00 -1.523409100000000072e+00
6.407179799999999759e+00 1.717998899999999995e+00 -1.531466800000000017e+00
7.703366800000000403e+00 2.062672099999999897e+00 -1.550132400000000077e+00
9.701520900000000225e+00 2.595888099999999810e+00 -1.590625600000000084e+00
1.318877999999999950e+01 3.524059999999999970e+00 -1.676191100000000045e+00
1.991453399999999974e+01 5.313734099999999572e+00 -1.803252300000000030e+00
5.500043899999999653e+00 1.455228200000000083e+00 -1.524444499999999980e+00
6.411254399999999798e+00 1.695123300000000111e+00 -1.531016900000000014e+00
7.706724200000000025e+00 2.034765199999999830e+00 -1.549369199999999891e+00
9.691424400000000716e+00 2.556966099999999908e+00 -1.587496999999999936e+00
1.317028900000000036e+01 3.469906100000000215e+00 -1.672291299999999925e+00
1.999847000000000108e+01 5.261436500000000294e+00 -1.809179099999999929e+00
2.817601000000000155e+01 7.454945099999999769e+00 5.087376799999999699e-01
5.506708099999999995e+00 1.437470299999999979e+00 -1.524962099999999987e+00
6.420903700000000214e+00 1.673718100000000097e+00 -1.531916899999999915e+00
7.694780800000000198e+00 2.002903900000000181e+00 -1.545552999999999955e+00
9.707936300000000074e+00 2.525111900000000187e+00 -1.588748499999999897e+00
1.314773699999999934e+01 3.414925600000000117e+00 -1.667904000000000053e+00
2.005914299999999884e+01 5.202595200000000197e+00 -1.813013800000000009e+00
5.493229900000000221e+00 1.412468000000000057e+00 -1.519785600000000070e+00
6.424819900000000139e+00 1.650808099999999889e+00 -1.531466800000000017e+00
7.697920800000000341e+00 1.975061399999999967e+00 -1.544789799999999991e+00
9.705211600000000161e+00 2.488263400000000125e+00 -1.586871099999999979e+00
1.315188200000000052e+01 3.367050400000000110e+00 -1.666929000000000105e+00
2.002313200000000037e+01 5.118722400000000228e+00 -1.808133100000000049e+00
5.503501400000000210e+00 1.395667200000000108e+00 -1.521338599999999985e+00
6.441876399999999947e+00 1.631245899999999915e+00 -1.534166200000000035e+00
7.695250999999999841e+00 1.945770100000000058e+00 -1.542881600000000075e+00
9.690856899999999996e+00 2.448561699999999952e+00 -1.583116900000000049e+00
1.314431000000000083e+01 3.316261799999999926e+00 -1.664491699999999907e+00
1.999064399999999964e+01 5.036146600000000362e+00 -1.803601000000000010e+00
5.517711600000000161e+00 1.378788099999999961e+00 -1.523926899999999973e+00
6.426453600000000321e+00 1.604679900000000048e+00 -1.529217400000000060e+00
7.697852600000000045e+00 1.919289100000000081e+00 -1.542118399999999889e+00
9.675920500000000146e+00 2.410687900000000106e+00 -1.579362399999999944e+00
1.312826500000000074e+01 3.265942599999999807e+00 -1.661079299999999925e+00
1.996856299999999962e+01 4.960225600000000235e+00 -1.800114900000000073e+00
5.514750000000000263e+00 1.358635700000000002e+00 -1.521856199999999992e+00
6.441477299999999850e+00 1.584563399999999955e+00 -1.531466800000000017e+00
7.700691199999999625e+00 1.891471899999999984e+00 -1.541355100000000089e+00
9.676602400000000159e+00 2.375011900000000065e+00 -1.578110899999999983e+00
1.310487999999999964e+01 3.211594100000000118e+00 -1.656692000000000053e+00
1.989286399999999944e+01 4.867755400000000066e+00 -1.791747800000000002e+00
5.521570200000000206e+00 1.338870500000000074e+00 -1.522373900000000058e+00
6.443182000000000187e+00 1.561149399999999909e+00 -1.530567000000000011e+00
7.703429700000000047e+00 1.863658199999999932e+00 -1.540591999999999961e+00
9.669474599999999143e+00 2.337503900000000190e+00 -1.575607999999999898e+00
1.309671299999999938e+01 3.161175000000000068e+00 -1.654254600000000019e+00
1.987486799999999931e+01 4.789888900000000227e+00 -1.788610299999999986e+00
5.522221599999999953e+00 1.319653399999999976e+00 -1.521338599999999985e+00
6.454278900000000263e+00 1.540007099999999962e+00 -1.531916899999999915e+00
7.694611100000000370e+00 1.833115000000000050e+00 -1.537538999999999989e+00
9.675652499999999989e+00 2.303281500000000204e+00 -1.575295099999999948e+00
1.308835599999999921e+01 3.110846000000000000e+00 -1.651817199999999985e+00
1.981780399999999887e+01 4.702996699999999919e+00 -1.781986499999999918e+00
5.513857400000000020e+00 1.296310999999999991e+00 -1.517715099999999984e+00
6.455820100000000394e+00 1.516578200000000098e+00 -1.531016900000000014e+00
7.699050899999999586e+00 1.805798100000000073e+00 -1.537157399999999896e+00
9.658630399999999838e+00 2.263635400000000075e+00 -1.571227799999999952e+00
1.307207400000000064e+01 3.058810900000000110e+00 -1.648404999999999898e+00
1.977977599999999825e+01 4.621093799999999696e+00 -1.777105699999999899e+00
5.529417999999999722e+00 1.280632999999999910e+00 -1.520820999999999978e+00
6.451582000000000150e+00 1.491840099999999891e+00 -1.528767500000000057e+00
7.705307999999999602e+00 1.778910299999999944e+00 -1.537157399999999896e+00
9.654924400000000517e+00 2.227244600000000130e+00 -1.569350599999999929e+00
1.305172199999999982e+01 3.006030099999999816e+00 -1.644505000000000106e+00
1.975306700000000149e+01 4.542202500000000143e+00 -1.773270799999999925e+00
5.534074300000000335e+00 1.260359299999999960e+00 -1.520820999999999978e+00
6.452949499999999894e+00 1.468444300000000036e+00 -1.527867700000000051e+00
7.711470099999999661e+00 1.752004499999999965e+00 -1.537157399999999896e+00
9.653008500000000325e+00 2.191339999999999844e+00 -1.567786200000000019e+00
1.304664700000000011e+01 2.956945199999999829e+00 -1.642555100000000046e+00
1.976491499999999846e+01 4.472348199999999885e+00 -1.772922300000000062e+00
5.543878099999999698e+00 1.243270000000000097e+00 -1.522373900000000058e+00
6.456135299999999688e+00 1.445483000000000073e+00 -1.527417800000000048e+00
7.702211400000000374e+00 1.721647499999999997e+00 -1.534104300000000087e+00
9.658671399999999352e+00 2.157198199999999844e+00 -1.567473399999999906e+00
1.303751399999999983e+01 2.907062300000000210e+00 -1.640117800000000070e+00
1.973372799999999927e+01 4.392942900000000428e+00 -1.768738700000000108e+00
5.531418799999999969e+00 1.219198500000000074e+00 -1.517715099999999984e+00
6.466850799999999566e+00 1.424196699999999982e+00 -1.528767500000000057e+00
7.702421199999999857e+00 1.693488099999999941e+00 -1.532959600000000089e+00
9.652637500000000870e+00 2.120505099999999921e+00 -1.565283299999999933e+00
1.302819299999999991e+01 2.857279099999999961e+00 -1.637680400000000036e+00
1.965552500000000080e+01 4.303572700000000140e+00 -1.760371899999999989e+00
2.196176000000000172e+01 4.804494400000000276e+00 -1.178187099999999932e+00
5.533543100000000159e+00 1.200440500000000021e+00 -1.517197499999999977e+00
6.483210099999999976e+00 1.404087700000000050e+00 -1.531466800000000017e+00
7.708284899999999773e+00 1.666592999999999991e+00 -1.532959600000000089e+00
9.642602899999999977e+00 2.083041699999999885e+00 -1.562467599999999956e+00
1.301091899999999946e+01 2.805935100000000126e+00 -1.634268000000000054e+00
1.961199399999999926e+01 4.222350099999999884e+00 -1.755142500000000050e+00
2.187490499999999827e+01 4.705557800000000235e+00 -1.172639399999999998e+00
5.539795899999999662e+00 1.180552100000000104e+00 -1.517715099999999984e+00
6.469010800000000394e+00 1.377394599999999913e+00 -1.526967799999999986e+00
7.714056000000000246e+00 1.639673799999999959e+00 -1.532959600000000089e+00
9.626625999999999905e+00 2.044452399999999948e+00 -1.558713100000000074e+00
1.298956300000000041e+01 2.753910799999999881e+00 -1.630368100000000098e+00
1.961492000000000147e+01 4.151394800000000274e+00 -1.754096600000000006e+00
5.549352599999999747e+00 1.163362599999999913e+00 -1.519268000000000063e+00
6.462335600000000291e+00 1.352408300000000008e+00 -1.524268500000000026e+00
7.715889500000000290e+00 1.611935499999999966e+00 -1.532196399999999903e+00
9.618235600000000218e+00 2.007605100000000142e+00 -1.556210199999999988e+00
1.295634399999999964e+01 2.699646200000000107e+00 -1.625005999999999950e+00
1.959808200000000156e+01 4.076403599999999905e+00 -1.751307699999999912e+00
2.158848199999999906e+01 4.486487399999999681e+00 -1.155577999999999994e+00
5.551487400000000072e+00 1.143598799999999915e+00 -1.518750400000000056e+00
6.472511299999999856e+00 1.332147799999999993e+00 -1.525618200000000035e+00
7.713499500000000175e+00 1.584761000000000086e+00 -1.530669800000000080e+00
9.620970700000000875e+00 1.974901699999999982e+00 -1.555584300000000031e+00
1.294188699999999947e+01 2.651887400000000117e+00 -1.622081000000000106e+00
1.952950699999999884e+01 3.994626300000000185e+00 -1.743986500000000106e+00
2.163454799999999878e+01 4.421275600000000416e+00 -1.157252699999999912e+00
5.540101499999999568e+00 1.122113600000000044e+00 -1.514609300000000047e+00
6.479032499999999750e+00 1.309930899999999898e+00 -1.526068100000000038e+00
7.722833200000000176e+00 1.558600699999999950e+00 -1.531433000000000044e+00
9.608442300000000103e+00 1.937399300000000046e+00 -1.552455700000000105e+00
1.293160600000000038e+01 2.602775299999999792e+00 -1.619643699999999908e+00
1.945738199999999907e+01 3.909167800000000081e+00 -1.736316799999999994e+00
2.167334900000000175e+01 4.350441000000000003e+00 -1.158508799999999894e+00
5.544177099999999747e+00 1.101801800000000053e+00 -1.514609300000000047e+00
6.479741599999999657e+00 1.286552200000000035e+00 -1.525168199999999974e+00
7.722449300000000072e+00 1.530490200000000023e+00 -1.530288199999999987e+00
9.605456399999999562e+00 1.901935799999999954e+00 -1.550891299999999973e+00
1.292503300000000088e+01 2.554536800000000163e+00 -1.617693800000000071e+00
1.949045900000000131e+01 3.845076300000000113e+00 -1.738059999999999938e+00
2.164137500000000003e+01 4.265485299999999924e+00 -1.155996699999999988e+00
5.549696400000000196e+00 1.083779199999999943e+00 -1.515126799999999996e+00
6.480367700000000397e+00 1.263178600000000040e+00 -1.524268500000000026e+00
7.727745500000000156e+00 1.503522500000000095e+00 -1.530288199999999987e+00
9.590706799999999532e+00 1.864246199999999964e+00 -1.547449700000000039e+00
1.291438400000000009e+01 2.505626700000000096e+00 -1.615256400000000037e+00
1.945681400000000139e+01 3.767931200000000036e+00 -1.733876500000000043e+00
2.152279100000000156e+01 4.164123100000000299e+00 -1.148878899999999925e+00
5.557426500000000047e+00 1.064156499999999950e+00 -1.516162199999999904e+00
6.478995300000000235e+00 1.239452999999999916e+00 -1.522918800000000017e+00
7.742588999999999722e+00 1.478377499999999900e+00 -1.532196399999999903e+00
9.593275099999999611e+00 1.830018900000000004e+00 -1.546823999999999977e+00
1.288015099999999968e+01 2.452359899999999815e+00 -1.609894200000000053e+00
1.941504300000000072e+01 3.689570900000000098e+00 -1.728995800000000083e+00
2.149402800000000013e+01 4.080767599999999717e+00 -1.146576199999999934e+00
5.570417400000000185e+00 1.047507900000000047e+00 -1.518750400000000056e+00
6.481367099999999937e+00 1.216468200000000000e+00 -1.522468799999999955e+00
7.739982600000000268e+00 1.449897500000000061e+00 -1.530669800000000080e+00
9.603488000000000469e+00 1.797245100000000040e+00 -1.547449700000000039e+00
1.287302099999999960e+01 2.404471599999999931e+00 -1.607944299999999993e+00
1.936120999999999981e+01 3.609366699999999817e+00 -1.723069100000000020e+00
2.161024099999999848e+01 4.024734500000000104e+00 -1.152019099999999963e+00
5.559020499999999920e+00 1.024284799999999995e+00 -1.514609300000000047e+00
6.491323900000000258e+00 1.194893200000000100e+00 -1.523818499999999965e+00
7.731481099999999884e+00 1.420385800000000032e+00 -1.527998600000000096e+00
9.592217399999999117e+00 1.760499999999999954e+00 -1.544634000000000063e+00
1.287352800000000030e+01 2.358087799999999845e+00 -1.606969400000000103e+00
1.932665300000000030e+01 3.533166399999999818e+00 -1.718885699999999961e+00
2.163594600000000057e+01 3.951423199999999802e+00 -1.152647100000000036e+00
5.564287199999999878e+00 1.006187100000000001e+00 -1.515126799999999996e+00
6.493537400000000126e+00 1.171882499999999938e+00 -1.523368599999999962e+00
7.740254400000000423e+00 1.394090700000000016e+00 -1.528761700000000001e+00
9.574974100000000377e+00 1.722810299999999906e+00 -1.540879499999999958e+00
1.284651000000000032e+01 2.306823699999999810e+00 -1.602581999999999951e+00
1.931533599999999851e+01 3.461460100000000040e+00 -1.716793999999999931e+00
2.161421999999999954e+01 3.869544700000000059e+00 -1.150762999999999980e+00
5.558426400000000100e+00 9.841035599999999883e-01 -1.512538799999999961e+00
6.493750600000000262e+00 1.148527999999999993e+00 -1.522468799999999955e+00
7.737340900000000410e+00 1.365696400000000033e+00 -1.527235399999999910e+00
9.567312199999999933e+00 1.686973300000000009e+00 -1.538689399999999985e+00
1.283884199999999964e+01 2.259217700000000217e+00 -1.600632099999999891e+00
1.924095499999999959e+01 3.378856900000000163e+00 -1.709124199999999982e+00
5.571176499999999976e+00 9.673165099999999628e-01 -1.515126799999999996e+00
6.482358500000000134e+00 1.123196400000000095e+00 -1.518869599999999931e+00
7.743996100000000382e+00 1.339012300000000044e+00 -1.527617000000000003e+00
9.569249199999999789e+00 1.652900899999999895e+00 -1.538063799999999981e+00
1.281535099999999971e+01 2.208989100000000150e+00 -1.596732299999999993e+00
1.926048700000000125e+01 3.313018800000000041e+00 -1.709821299999999988e+00
5.580398100000000028e+00 9.478623900000000546e-01 -1.516679799999999911e+00
6.490082700000000315e+00 1.101212300000000033e+00 -1.519769399999999937e+00
7.740879500000000135e+00 1.310663099999999970e+00 -1.526090399999999958e+00
9.569117500000000831e+00 1.618497000000000074e+00 -1.537125099999999911e+00
1.280340999999999951e+01 2.160940899999999942e+00 -1.594294899999999959e+00
1.923657000000000039e+01 3.239805699999999788e+00 -1.706683900000000031e+00
5.564454099999999848e+00 9.261811399999999583e-01 -1.511503500000000111e+00
6.499654300000000440e+00 1.079506999999999994e+00 -1.521119099999999946e+00
7.737660400000000216e+00 1.282348400000000055e+00 -1.524563899999999972e+00
9.572759599999999480e+00 1.584759599999999935e+00 -1.536812199999999962e+00
1.278345599999999926e+01 2.111702399999999979e+00 -1.590882499999999977e+00
1.917698899999999895e+01 3.160985699999999898e+00 -1.700408600000000048e+00
5.565746800000000327e+00 9.064400200000000130e-01 -1.510985900000000104e+00
6.503197700000000303e+00 1.057951899999999945e+00 -1.521119099999999946e+00
7.745746099999999856e+00 1.257312999999999903e+00 -1.525327199999999994e+00
9.564311999999999259e+00 1.550799700000000003e+00 -1.534622099999999989e+00
1.277079099999999912e+01 2.066131599999999846e+00 -1.588445200000000002e+00
1.913622700000000165e+01 3.089114400000000149e+00 -1.695876500000000009e+00
5.566814400000000163e+00 8.876726000000000338e-01 -1.510468200000000039e+00
6.499153100000000016e+00 1.034018499999999952e+00 -1.519319499999999934e+00
7.752026599999999767e+00 1.230577000000000032e+00 -1.525708800000000087e+00
9.556010199999999344e+00 1.515236599999999934e+00 -1.532432100000000075e+00
1.275831799999999916e+01 2.018441399999999941e+00 -1.586007799999999968e+00
1.912721600000000066e+01 3.019186299999999878e+00 -1.694133499999999959e+00
2.186353499999999883e+01 3.447208199999999945e+00 -1.159974199999999955e+00
5.575757000000000296e+00 8.681560799999999967e-01 -1.512021199999999954e+00
6.493095900000000142e+00 1.009826799999999913e+00 -1.517070099999999977e+00
7.762095500000000037e+00 1.204410999999999898e+00 -1.526853800000000039e+00
9.555386499999999117e+00 1.480960499999999902e+00 -1.531493500000000063e+00
1.274174499999999988e+01 1.970250800000000080e+00 -1.583082899999999960e+00
1.905493200000000087e+01 2.939646499999999829e+00 -1.686812299999999931e+00
5.576694999999999958e+00 8.493716100000000546e-01 -1.511503500000000111e+00
6.498507000000000033e+00 9.874495899999999882e-01 -1.517519999999999980e+00
7.744900699999999638e+00 1.174070100000000005e+00 -1.522655799999999893e+00
9.566356700000000046e+00 1.448486200000000057e+00 -1.532432100000000075e+00
1.270928999999999931e+01 1.919828300000000043e+00 -1.578208199999999950e+00
1.903355600000000081e+01 2.868368400000000040e+00 -1.684023400000000059e+00
5.572127799999999631e+00 8.277894300000000483e-01 -1.509432899999999966e+00
6.505770199999999726e+00 9.653300000000000214e-01 -1.518419699999999928e+00
7.754777400000000043e+00 1.147892200000000029e+00 -1.523800700000000008e+00
9.569400800000000373e+00 1.414793100000000026e+00 -1.532119199999999903e+00
1.269627400000000073e+01 1.872559099999999921e+00 -1.575770700000000080e+00
1.900008800000000164e+01 2.795526000000000177e+00 -1.680188699999999979e+00
5.571017699999999628e+00 8.087530099999999944e-01 -1.508397599999999894e+00
6.509100000000000108e+00 9.426160500000000386e-01 -1.518419699999999928e+00
7.750964599999999649e+00 1.119694799999999990e+00 -1.522274300000000080e+00
9.582099899999999337e+00 1.382511299999999999e+00 -1.533370600000000028e+00
1.269094300000000075e+01 1.826535299999999973e+00 -1.574308299999999994e+00
1.893478800000000106e+01 2.718430800000000147e+00 -1.673564800000000075e+00
5.575857599999999969e+00 7.886006199999999744e-01 -1.508915299999999959e+00
6.496913900000000019e+00 9.177071500000000270e-01 -1.514820499999999903e+00
7.754825600000000208e+00 1.092633699999999930e+00 -1.522274300000000080e+00
9.567307500000000076e+00 1.346300100000000111e+00 -1.530242000000000102e+00
1.269331000000000031e+01 1.781675300000000073e+00 -1.573820800000000020e+00
1.892048499999999933e+01 2.648999499999999951e+00 -1.671472999999999987e+00
5.582269700000000334e+00 7.706328000000000067e-01 -1.509950499999999973e+00
6.498147499999999965e+00 8.947585799999999701e-01 -1.514370599999999900e+00
7.762482600000000232e+00 1.066089899999999924e+00 -1.523037399999999986e+00
9.568034199999999601e+00 1.312360900000000052e+00 -1.529616199999999981e+00
1.266798400000000058e+01 1.733048300000000097e+00 -1.569920999999999900e+00
1.890592600000000090e+01 2.579709999999999948e+00 -1.669381299999999957e+00
5.604203199999999718e+00 7.527378799999999703e-01 -1.515126799999999996e+00
6.508956399999999753e+00 8.731081499999999718e-01 -1.516170100000000076e+00
7.746697900000000025e+00 1.036381800000000020e+00 -1.519221300000000108e+00
9.576472300000000715e+00 1.279479400000000044e+00 -1.530242000000000102e+00
1.264247300000000074e+01 1.684619499999999936e+00 -1.566021200000000002e+00
1.887136500000000083e+01 2.507920700000000114e+00 -1.665546299999999924e+00
5.587513000000000396e+00 7.316451099999999874e-01 -1.509950499999999973e+00
6.511964299999999817e+00 8.503804799999999942e-01 -1.516170100000000076e+00
7.748321500000000306e+00 1.009082699999999999e+00 -1.518839700000000015e+00
9.576963400000000348e+00 1.245531299999999897e+00 -1.529616199999999981e+00
1.263646499999999939e+01 1.638949500000000059e+00 -1.564558700000000080e+00
1.883258199999999860e+01 2.435893099999999922e+00 -1.661362800000000028e+00
5.584408800000000284e+00 7.104255000000000431e-01 -1.508397599999999894e+00
6.522625900000000421e+00 8.286280599999999996e-01 -1.517969700000000088e+00
7.753744099999999584e+00 9.822744100000000422e-01 -1.519221300000000108e+00
9.577332500000000692e+00 1.211600100000000069e+00 -1.528990499999999919e+00
1.263029299999999999e+01 1.593336000000000086e+00 -1.563096299999999994e+00
1.881724699999999828e+01 2.367169399999999868e+00 -1.659271099999999999e+00
2.467989700000000042e+01 3.100290799999999791e+00 -1.303584000000000076e+00
5.596319699999999564e+00 6.930913300000000055e-01 -1.510985900000000104e+00
6.488732299999999675e+00 8.013151299999999866e-01 -1.509421700000000088e+00
7.757125399999999615e+00 9.552081199999999939e-01 -1.519221300000000108e+00
9.581503899999999518e+00 1.178158999999999956e+00 -1.528990499999999919e+00
1.261213300000000004e+01 1.546348199999999951e+00 -1.560171500000000044e+00
1.879770900000000111e+01 2.298080399999999912e+00 -1.656830699999999990e+00
5.592950799999999667e+00 6.728612800000000060e-01 -1.509432899999999966e+00
6.497158100000000047e+00 7.804918899999999660e-01 -1.510771400000000098e+00
7.766098500000000016e+00 9.301776899999999459e-01 -1.520366200000000001e+00
9.557898500000000297e+00 1.143096899999999971e+00 -1.524610299999999974e+00
1.258959600000000023e+01 1.501222099999999893e+00 -1.556759100000000062e+00
1.873004500000000050e+01 2.226789000000000129e+00 -1.650206899999999921e+00
5.598988499999999924e+00 6.547606000000000259e-01 -1.510468200000000039e+00
6.492100200000000321e+00 7.569033499999999748e-01 -1.508971700000000027e+00
7.749796899999999766e+00 9.007945099999999927e-01 -1.516549900000000006e+00
9.569679300000000666e+00 1.110635000000000039e+00 -1.525861899999999993e+00
1.255926499999999990e+01 1.453156899999999974e+00 -1.552371900000000027e+00
1.869811999999999941e+01 2.156842000000000148e+00 -1.646720799999999985e+00
5.593561600000000134e+00 6.343401699999999810e-01 -1.508397599999999894e+00
6.506192699999999718e+00 7.366874199999999817e-01 -1.511671200000000104e+00
7.752741300000000280e+00 8.750917900000000360e-01 -1.516549900000000006e+00
9.573309899999999928e+00 1.078892100000000021e+00 -1.525861899999999993e+00
1.256006900000000037e+01 1.411060100000000039e+00 -1.551884299999999994e+00
1.868140999999999963e+01 2.092159000000000102e+00 -1.644628999999999897e+00
5.595634500000000067e+00 6.157862499999999795e-01 -1.508397599999999894e+00
6.510661599999999716e+00 7.141859499999999583e-01 -1.512121100000000107e+00
7.757699999999999818e+00 8.482393599999999978e-01 -1.516931500000000099e+00
9.557379700000000255e+00 1.043331400000000020e+00 -1.522733099999999951e+00
1.254518299999999975e+01 1.365064000000000055e+00 -1.549446899999999960e+00
1.863313499999999934e+01 2.020915700000000204e+00 -1.639748200000000100e+00
5.599775300000000122e+00 5.954786499999999982e-01 -1.508915299999999959e+00
6.511177499999999618e+00 6.912477000000000205e-01 -1.511671200000000104e+00
7.752804799999999830e+00 8.203264500000000403e-01 -1.515405200000000008e+00
9.553106299999999607e+00 1.009131000000000000e+00 -1.521481800000000106e+00
1.254197500000000076e+01 1.320430200000000109e+00 -1.548471900000000012e+00
1.858855799999999903e+01 1.950459699999999907e+00 -1.635216100000000061e+00
5.603640600000000305e+00 5.771048100000000236e-01 -1.509432899999999966e+00
6.513550300000000348e+00 6.685166399999999953e-01 -1.511671200000000104e+00
7.763433499999999654e+00 7.940560599999999525e-01 -1.516931500000000099e+00
9.560500100000000501e+00 9.761815700000000540e-01 -1.522107400000000110e+00
1.253070899999999988e+01 1.275031599999999932e+00 -1.546522100000000011e+00
1.857939500000000166e+01 1.883948799999999979e+00 -1.633821600000000096e+00
5.611485499999999682e+00 5.571337899999999621e-01 -1.510985900000000104e+00
6.517783200000000221e+00 6.459664099999999909e-01 -1.512121100000000107e+00
7.742713000000000179e+00 7.646380699999999475e-01 -1.512352200000000035e+00
9.555986400000000103e+00 9.420254799999999706e-01 -1.520855899999999927e+00
1.252322999999999986e+01 1.230121599999999926e+00 -1.545059699999999925e+00
1.853826700000000116e+01 1.814429000000000070e+00 -1.629638099999999978e+00
5.597918499999999575e+00 5.370475599999999794e-01 -1.506844800000000095e+00
6.523878599999999750e+00 6.235834399999999889e-01 -1.513020899999999891e+00
7.743380100000000432e+00 7.374181199999999548e-01 -1.511970500000000106e+00
9.559216499999999783e+00 9.086605899999999902e-01 -1.520855899999999927e+00
1.255116300000000074e+01 1.188642600000000105e+00 -1.547984500000000097e+00
1.848894699999999958e+01 1.744470799999999988e+00 -1.624757400000000018e+00
5.594078099999999942e+00 5.159955000000000513e-01 -1.505291799999999958e+00
6.522134300000000273e+00 6.004480100000000320e-01 -1.512121100000000107e+00
7.740041299999999680e+00 7.098515600000000481e-01 -1.510825599999999991e+00
9.540692299999999904e+00 8.733084800000000536e-01 -1.517414500000000110e+00
1.251569699999999941e+01 1.141226999999999991e+00 -1.543109800000000087e+00
1.842349400000000159e+01 1.673428700000000102e+00 -1.618482399999999988e+00
5.613076200000000071e+00 4.989799899999999844e-01 -1.509950499999999973e+00
6.526132600000000394e+00 5.778480200000000178e-01 -1.512571000000000110e+00
7.738561200000000362e+00 6.824824800000000025e-01 -1.510062500000000085e+00
9.543682099999999835e+00 8.399974100000000554e-01 -1.517414500000000110e+00
1.252355999999999980e+01 1.097875600000000063e+00 -1.543597200000000003e+00
1.840143399999999829e+01 1.606686199999999953e+00 -1.616041999999999978e+00
5.609175699999999765e+00 4.769339599999999901e-01 -1.508397599999999894e+00
6.512672399999999584e+00 5.526079499999999589e-01 -1.508971700000000027e+00
7.744923100000000282e+00 6.544469600000000220e-01 -1.510825599999999991e+00
9.538823100000000110e+00 8.043505499999999975e-01 -1.516162900000000091e+00
1.249585000000000079e+01 1.049312000000000022e+00 -1.539697400000000105e+00
1.837543099999999896e+01 1.536569499999999922e+00 -1.613252899999999990e+00
5.612652800000000219e+00 4.584864399999999951e-01 -1.508915299999999959e+00
6.524272899999999709e+00 5.306593200000000454e-01 -1.511221300000000101e+00
7.735418799999999706e+00 6.264551900000000506e-01 -1.508536000000000099e+00
9.547479600000000843e+00 7.715238300000000216e-01 -1.517101500000000103e+00
1.248756400000000077e+01 1.004728400000000077e+00 -1.538234899999999961e+00
1.835685199999999995e+01 1.470512599999999948e+00 -1.611161099999999902e+00
5.610443100000000349e+00 4.376127400000000001e-01 -1.507880000000000109e+00
6.526085400000000369e+00 5.078866499999999951e-01 -1.511221300000000101e+00
7.729729200000000411e+00 5.988448299999999946e-01 -1.507009499999999891e+00
9.548144300000000584e+00 7.380464700000000100e-01 -1.516788599999999931e+00
1.248307800000000078e+01 9.605200299999999691e-01 -1.537259900000000012e+00
1.829830199999999962e+01 1.401552399999999921e+00 -1.605583200000000099e+00
5.598378199999999971e+00 4.179996599999999951e-01 -1.504256500000000107e+00
6.537535199999999769e+00 4.858235699999999824e-01 -1.513470799999999894e+00
7.747436500000000059e+00 5.730158100000000143e-01 -1.510062500000000085e+00
9.542782799999999455e+00 7.041287400000000307e-01 -1.515537099999999970e+00
1.249031399999999969e+01 9.172335299999999636e-01 -1.537747500000000045e+00
1.823552099999999854e+01 1.332737000000000060e+00 -1.599656600000000095e+00
5.611365300000000111e+00 3.992763200000000179e-01 -1.507362400000000102e+00
6.523559999999999803e+00 4.630360600000000271e-01 -1.509871600000000091e+00
7.751251700000000078e+00 5.474610899999999836e-01 -1.510443999999999898e+00
9.533243199999999362e+00 6.716442700000000432e-01 -1.513660000000000005e+00
1.248536700000000010e+01 8.752563599999999555e-01 -1.536772599999999933e+00
1.823586699999999894e+01 1.271984900000000085e+00 -1.599307899999999893e+00
5.620368000000000031e+00 3.811874699999999727e-01 -1.509432899999999966e+00
6.521247400000000027e+00 4.400007699999999855e-01 -1.508971700000000027e+00
7.757033299999999798e+00 5.206617700000000237e-01 -1.511207299999999920e+00
9.535529099999999758e+00 6.383649099999999521e-01 -1.513660000000000005e+00
1.246457700000000024e+01 8.300827100000000014e-01 -1.533847699999999925e+00
1.820043599999999984e+01 1.205683199999999955e+00 -1.595821900000000015e+00
5.614015600000000106e+00 3.600918699999999806e-01 -1.507362400000000102e+00
6.518854100000000429e+00 4.169873000000000052e-01 -1.508072000000000079e+00
7.743129299999999660e+00 4.925859899999999736e-01 -1.508154400000000006e+00
9.549527199999999993e+00 6.058282299999999676e-01 -1.515537099999999970e+00
1.247136000000000067e+01 7.868207699999999472e-01 -1.534335100000000063e+00
1.818067200000000128e+01 1.140642600000000062e+00 -1.593730099999999927e+00
5.615179099999999757e+00 3.414715799999999968e-01 -1.507362400000000102e+00
6.526105900000000126e+00 3.945839099999999822e-01 -1.509421700000000088e+00
7.742841699999999605e+00 4.654345500000000024e-01 -1.507772799999999913e+00
9.547639800000000676e+00 5.722561499999999635e-01 -1.514911300000000072e+00
1.243043600000000026e+01 7.406818299999999855e-01 -1.528972900000000079e+00
1.810896500000000131e+01 1.072700299999999940e+00 -1.587106200000000022e+00
5.608677899999999994e+00 3.204490799999999973e-01 -1.505291799999999958e+00
6.531334400000000429e+00 3.720210199999999801e-01 -1.510321500000000094e+00
7.756180299999999583e+00 4.390715399999999824e-01 -1.510062500000000085e+00
9.539718600000000492e+00 5.383661400000000485e-01 -1.513347100000000056e+00
1.245276600000000045e+01 6.984012699999999629e-01 -1.531410299999999891e+00
1.805291899999999927e+01 1.006150700000000064e+00 -1.581876899999999919e+00
5.611639000000000266e+00 3.019531999999999772e-01 -1.505809399999999965e+00
6.532593300000000269e+00 3.492183999999999844e-01 -1.510321500000000094e+00
7.753744099999999584e+00 4.117844399999999738e-01 -1.509299299999999899e+00
9.531677200000000738e+00 5.045383599999999635e-01 -1.511782799999999982e+00
1.247495200000000004e+01 6.559677099999999816e-01 -1.533847699999999925e+00
1.804438199999999881e+01 9.425169799999999487e-01 -1.580830900000000039e+00
5.624284300000000236e+00 2.819624199999999914e-01 -1.508915299999999959e+00
6.525987599999999667e+00 3.260256899999999791e-01 -1.508521900000000082e+00
7.762978099999999770e+00 3.851070400000000116e-01 -1.510825599999999991e+00
9.533380499999999813e+00 4.712655499999999775e-01 -1.511782799999999982e+00
1.242164999999999964e+01 6.096898299999999882e-01 -1.527023000000000019e+00
1.802368200000000087e+01 8.783559800000000362e-01 -1.578739200000000009e+00
5.623258599999999774e+00 2.632208500000000062e-01 -1.508397599999999894e+00
6.521245500000000028e+00 3.029707400000000161e-01 -1.507172100000000015e+00
7.748585199999999951e+00 3.572850499999999929e-01 -1.507772799999999913e+00
9.538913700000000162e+00 4.381637299999999735e-01 -1.512408399999999986e+00
1.243163499999999999e+01 5.666965800000000053e-01 -1.527997999999999967e+00
1.799479300000000137e+01 8.139908900000000225e-01 -1.575950299999999915e+00
5.622170399999999901e+00 2.444892100000000124e-01 -1.507880000000000109e+00
6.533846900000000346e+00 2.829893499999999729e-01 -1.509871600000000091e+00
7.737900699999999965e+00 3.324362900000000232e-01 -1.505482999999999905e+00
9.536295900000000714e+00 4.080271400000000104e-01 -1.511782799999999982e+00
1.242542000000000080e+01 5.273044099999999457e-01 -1.527023000000000019e+00
1.800920500000000146e+01 7.579607999999999901e-01 -1.576996199999999959e+00
5.617159799999999592e+00 2.256099099999999968e-01 -1.506326999999999972e+00
6.540636100000000397e+00 2.604110800000000170e-01 -1.511221300000000101e+00
7.754707800000000262e+00 3.060412399999999922e-01 -1.508536000000000099e+00
9.529766099999999796e+00 3.744240400000000135e-01 -1.510531199999999963e+00
1.241924999999999990e+01 4.836161099999999879e-01 -1.526048099999999907e+00
1.794802999999999926e+01 6.926374400000000486e-01 -1.571418200000000098e+00
5.612192600000000198e+00 2.038309100000000040e-01 -1.504774099999999892e+00
6.525967099999999910e+00 2.358750300000000133e-01 -1.507622000000000018e+00
7.759701299999999691e+00 2.777589599999999992e-01 -1.509299299999999899e+00
9.527126300000000825e+00 3.393546299999999905e-01 -1.509905499999999900e+00
1.242093900000000062e+01 4.380968199999999979e-01 -1.526048099999999907e+00
1.795841400000000121e+01 6.271234799999999554e-01 -1.572115300000000104e+00
5.612837800000000321e+00 1.852175299999999913e-01 -1.504774099999999892e+00
6.522855299999999801e+00 2.129648199999999991e-01 -1.506722300000000070e+00
7.760623899999999686e+00 2.506687599999999905e-01 -1.509299299999999899e+00
9.532201799999999281e+00 3.062210100000000157e-01 -1.510531199999999963e+00
1.243032900000000041e+01 3.949858199999999875e-01 -1.527023000000000019e+00
1.789278799999999947e+01 5.623090899999999559e-01 -1.566188799999999937e+00
5.623105500000000312e+00 1.659073399999999865e-01 -1.507362400000000102e+00
6.527421000000000362e+00 1.914517299999999866e-01 -1.507622000000000018e+00
7.757487300000000197e+00 2.248163199999999862e-01 -1.508536000000000099e+00
9.531190900000000354e+00 2.745544300000000160e-01 -1.510218400000000072e+00
1.240775999999999968e+01 3.530821800000000232e-01 -1.524098200000000070e+00
1.788260299999999958e+01 5.026390600000000264e-01 -1.565142899999999893e+00
5.610106499999999663e+00 1.469066699999999892e-01 -1.503738900000000100e+00
6.526101599999999614e+00 1.686135500000000009e-01 -1.507172100000000015e+00
7.750374299999999828e+00 1.975378399999999923e-01 -1.507009499999999891e+00
9.536039399999999944e+00 2.413846699999999956e-01 -1.510844000000000076e+00
1.238510300000000086e+01 3.091770099999999744e-01 -1.521173200000000003e+00
1.786433200000000099e+01 4.397190799999999844e-01 -1.563399900000000065e+00
5.614447600000000094e+00 1.274116799999999994e-01 -1.504774099999999892e+00
6.538314800000000204e+00 1.472358400000000067e-01 -1.509871600000000091e+00
7.754913300000000120e+00 1.719241599999999925e-01 -1.507772799999999913e+00
9.526913600000000315e+00 2.095454200000000100e-01 -1.509279800000000060e+00
1.239002999999999943e+01 2.681932200000000099e-01 -1.521660800000000036e+00
1.785772300000000001e+01 3.803017399999999992e-01 -1.562702500000000105e+00
5.614839100000000194e+00 1.087912500000000060e-01 -1.504774099999999892e+00
6.527098200000000183e+00 1.241877799999999976e-01 -1.507172100000000015e+00
7.763317100000000082e+00 1.449979799999999985e-01 -1.509299299999999899e+00
9.533512099999999378e+00 1.763961000000000001e-01 -1.510218400000000072e+00
1.239684500000000078e+01 2.250470999999999999e-01 -1.522391899999999909e+00
1.784300599999999903e+01 3.176843799999999884e-01 -1.561308099999999977e+00
5.619063399999999930e+00 8.827035099999999690e-02 -1.505809399999999965e+00
6.523594899999999974e+00 1.013440300000000016e-01 -1.506272300000000008e+00
7.753961600000000232e+00 1.177469599999999977e-01 -1.507391200000000042e+00
9.526169799999999910e+00 1.430002700000000126e-01 -1.508966900000000111e+00
1.239953900000000075e+01 1.817984599999999951e-01 -1.522635699999999925e+00
1.781611600000000095e+01 2.549948100000000162e-01 -1.558867800000000026e+00
5.623188999999999993e+00 6.968806700000000631e-02 -1.506844800000000095e+00
6.525857399999999586e+00 7.859356000000000675e-02 -1.506722300000000070e+00
7.746472400000000036e+00 9.058966499999999977e-02 -1.505864599999999998e+00
9.530561399999999850e+00 1.097898399999999997e-01 -1.509592700000000010e+00
1.239215899999999948e+01 1.384288100000000132e-01 -1.521660800000000036e+00
1.780892800000000165e+01 1.927209000000000005e-01 -1.558170400000000066e+00
5.611815899999999857e+00 4.897231600000000185e-02 -1.503738900000000100e+00
6.529989200000000160e+00 5.584828900000000235e-02 -1.507622000000000018e+00
7.752630700000000097e+00 6.359513099999999919e-02 -1.507009499999999891e+00
9.530885700000000682e+00 7.652331099999999664e-02 -1.509592700000000010e+00
1.239653700000000036e+01 9.519843799999999634e-02 -1.522148300000000010e+00
