# .PCD v0.7 - Point Cloud Data file format
VERSION 0.7
FIELDS x y z
SIZE 4 4 4
TYPE F F F
COUNT 1 1 1
WIDTH 629
HEIGHT 1
VIEWPOINT 0 0 0 1 0 0 0
POINTS 629
DATA ascii
7.960042999999999758e+00 2.703620900000000216e+00 -1.634088299999999938e+00
9.981222199999999489e+00 3.388169299999999939e+00 -1.669468799999999975e+00
1.347183899999999923e+01 4.567830999999999975e+00 -1.746631599999999951e+00
1.776893600000000006e+01 6.017912899999999787e+00 -1.641316999999999915e+00
2.238217399999999913e+01 7.575951100000000160e+00 -1.238373399999999958e+00
2.235150700000000157e+01 7.556865700000000352e+00 -4.118418999999999830e-01
5.538943299999999681e+00 1.862983000000000056e+00 -1.565855500000000067e+00
6.548221599999999754e+00 2.201177799999999962e+00 -1.594902999999999960e+00
7.956404700000000219e+00 2.671442499999999942e+00 -1.631416900000000059e+00
9.966767300000000773e+00 3.344511499999999860e+00 -1.665088399999999913e+00
1.343876599999999932e+01 4.504372100000000323e+00 -1.740294299999999961e+00
1.779739000000000004e+01 5.958384500000000195e+00 -1.642014300000000038e+00
2.259409899999999993e+01 7.559877400000000414e+00 -1.248631400000000058e+00
2.256171199999999999e+01 7.540296999999999805e+00 -4.152276799999999879e-01
5.543257200000000218e+00 1.843996299999999922e+00 -1.565337900000000060e+00
6.546618900000000352e+00 2.175232900000000136e+00 -1.592653600000000003e+00
7.934005299999999927e+00 2.633141999999999872e+00 -1.624929499999999916e+00
9.955883999999999290e+00 3.302235599999999938e+00 -1.661334199999999983e+00
1.342048600000000036e+01 4.446199899999999872e+00 -1.735907099999999925e+00
1.781240700000000032e+01 5.894341899999999690e+00 -1.641491400000000045e+00
2.279859700000000089e+01 7.539917899999999840e+00 -1.258470399999999989e+00
2.272460699999999889e+01 7.506650399999999834e+00 -4.177407899999999730e-01
2.261717600000000061e+01 7.519349599999999967e+00 4.160304699999999856e-01
5.537449399999999855e+00 1.818477600000000027e+00 -1.561714400000000058e+00
6.554547799999999924e+00 2.151224899999999884e+00 -1.592653600000000003e+00
7.919350599999999574e+00 2.596092500000000136e+00 -1.619968499999999922e+00
9.967920299999999401e+00 3.265725600000000117e+00 -1.661334199999999983e+00
1.340650800000000054e+01 4.387100199999999894e+00 -1.732007300000000027e+00
1.781116499999999903e+01 5.821592299999999831e+00 -1.639399599999999957e+00
2.302352899999999991e+01 7.520798199999999767e+00 -1.269356399999999940e+00
2.298199800000000081e+01 7.498366800000000332e+00 -4.219642900000000196e-01
5.539773499999999906e+00 1.798915299999999995e+00 -1.560679099999999986e+00
6.552748700000000426e+00 2.125324500000000061e+00 -1.590403999999999929e+00
7.913422100000000015e+00 2.563593899999999870e+00 -1.616915499999999950e+00
9.945431700000000319e+00 3.219955899999999982e+00 -1.655702500000000077e+00
1.335752100000000020e+01 4.319511900000000182e+00 -1.723720200000000036e+00
1.781052199999999885e+01 5.752643100000000231e+00 -1.637482199999999999e+00
2.325871499999999870e+01 7.507879700000000156e+00 -1.280870200000000070e+00
2.323832300000000117e+01 7.492341999999999835e+00 -4.261877800000000160e-01
5.546019099999999646e+00 1.779565499999999911e+00 -1.560679099999999986e+00
6.543059300000000356e+00 2.098228699999999947e+00 -1.586354999999999960e+00
7.905051699999999570e+00 2.531950000000000145e+00 -1.613480900000000107e+00
9.916545899999999136e+00 3.174313499999999788e+00 -1.649132299999999995e+00
1.336420700000000039e+01 4.272777099999999884e+00 -1.722745200000000088e+00
1.782380900000000068e+01 5.691735699999999731e+00 -1.636959300000000006e+00
2.348516800000000160e+01 7.495080500000000256e+00 -1.291965500000000100e+00
2.347643100000000160e+01 7.483251100000000378e+00 -4.300971000000000100e-01
5.551890399999999559e+00 1.761163000000000034e+00 -1.560679099999999986e+00
6.542912499999999909e+00 2.073023300000000013e+00 -1.584555300000000111e+00
7.904483800000000393e+00 2.501377100000000020e+00 -1.611572900000000086e+00
9.927564600000000183e+00 3.139681099999999780e+00 -1.649132299999999995e+00
1.331846900000000034e+01 4.206965000000000288e+00 -1.714945600000000070e+00
1.783026900000000126e+01 5.625282799999999916e+00 -1.635739099999999890e+00
2.371691099999999963e+01 7.477913400000000266e+00 -1.303269999999999929e+00
2.365690199999999876e+01 7.449915899999999702e+00 -4.329244199999999765e-01
5.561690800000000046e+00 1.742928999999999951e+00 -1.561714400000000058e+00
6.542312100000000186e+00 2.048983300000000174e+00 -1.582755700000000099e+00
7.886502300000000076e+00 2.466947100000000059e+00 -1.606230100000000105e+00
9.915298500000000459e+00 3.099667300000000125e+00 -1.645377799999999890e+00
1.329444699999999990e+01 4.150946099999999639e+00 -1.710070699999999944e+00
1.785072299999999856e+01 5.566721000000000252e+00 -1.635913399999999962e+00
2.395895799999999909e+01 7.466963800000000262e+00 -1.315202600000000110e+00
2.391441500000000175e+01 7.443938300000000119e+00 -4.371827799999999931e-01
5.560058599999999629e+00 1.722191000000000027e+00 -1.559643899999999972e+00
6.545702499999999979e+00 2.024980300000000177e+00 -1.581855999999999929e+00
7.880059199999999819e+00 2.434768200000000160e+00 -1.603177300000000027e+00
9.893971399999999861e+00 3.055127099999999984e+00 -1.640058900000000097e+00
1.328229800000000083e+01 4.096326799999999935e+00 -1.706658500000000078e+00
1.789860900000000044e+01 5.513169800000000009e+00 -1.638528100000000043e+00
2.419866599999999934e+01 7.449116199999999743e+00 -1.326925899999999992e+00
2.415624400000000094e+01 7.426814600000000155e+00 -4.411270299999999756e-01
5.551553700000000369e+00 1.697280799999999923e+00 -1.555502699999999905e+00
6.545274299999999990e+00 1.999846000000000013e+00 -1.580056300000000080e+00
7.864099999999999646e+00 2.399795300000000076e+00 -1.598216199999999976e+00
9.874342000000000397e+00 3.011359500000000189e+00 -1.635053000000000090e+00
1.324714499999999973e+01 4.034895900000000424e+00 -1.700321200000000088e+00
1.798636600000000030e+01 5.471537099999999931e+00 -1.644803400000000027e+00
2.443854100000000074e+01 7.429659400000000247e+00 -1.338649200000000095e+00
2.437527499999999847e+01 7.401132600000000394e+00 -4.446524099999999979e-01
5.559001900000000163e+00 1.679418899999999937e+00 -1.556020299999999912e+00
6.529828099999999580e+00 1.970229900000000089e+00 -1.574657600000000102e+00
7.866788900000000417e+00 2.370632599999999979e+00 -1.597071399999999919e+00
9.867772099999999824e+00 2.971744100000000000e+00 -1.632237299999999891e+00
1.321932699999999983e+01 3.976054400000000211e+00 -1.694959000000000104e+00
1.807404899999999870e+01 5.429349900000000062e+00 -1.651078499999999893e+00
2.467091900000000138e+01 7.406334400000000429e+00 -1.349953699999999923e+00
2.460017200000000059e+01 7.375721900000000275e+00 -4.482825100000000229e-01
5.568822400000000172e+00 1.660137999999999892e+00 -1.557055599999999984e+00
6.532930900000000207e+00 1.946309800000000090e+00 -1.573757599999999979e+00
7.863726599999999678e+00 2.339796300000000162e+00 -1.594781800000000027e+00
9.862937900000000369e+00 2.932774100000000050e+00 -1.629734299999999969e+00
1.316842699999999944e+01 3.910668600000000161e+00 -1.686671899999999891e+00
1.818839499999999987e+01 5.394565599999999961e+00 -1.659794100000000050e+00
2.493790200000000112e+01 7.391681700000000355e+00 -1.363142400000000087e+00
2.486544200000000160e+01 7.360775499999999916e+00 -4.526455999999999813e-01
5.572443500000000327e+00 1.641117200000000054e+00 -1.556537999999999977e+00
6.547162499999999774e+00 1.925694699999999981e+00 -1.575557199999999991e+00
7.839824199999999799e+00 2.302923900000000135e+00 -1.588294099999999931e+00
9.842788699999999835e+00 2.889427899999999827e+00 -1.624728399999999962e+00
1.315151799999999938e+01 3.855738899999999969e+00 -1.682771999999999935e+00
1.837538299999999936e+01 5.380307700000000359e+00 -1.675133500000000053e+00
2.518591299999999933e+01 7.369644199999999756e+00 -1.375284299999999904e+00
2.515970799999999841e+01 7.352455599999999869e+00 -4.575322900000000081e-01
5.565434500000000284e+00 1.616910800000000092e+00 -1.552914600000000034e+00
6.542616800000000232e+00 1.899567199999999900e+00 -1.572857900000000031e+00
7.832728900000000216e+00 2.271175400000000177e+00 -1.585241200000000017e+00
9.837635999999999825e+00 2.850651299999999999e+00 -1.622225500000000098e+00
1.311913000000000018e+01 3.796573200000000092e+00 -1.676922199999999918e+00
1.855100399999999894e+01 5.361488800000000055e+00 -1.689427000000000012e+00
2.547244099999999989e+01 7.357073299999999705e+00 -1.389519699999999913e+00
2.540041199999999932e+01 7.326651599999999931e+00 -4.614416100000000021e-01
5.572622800000000431e+00 1.598977400000000104e+00 -1.553432099999999982e+00
6.545460199999999951e+00 1.875645400000000018e+00 -1.571958100000000025e+00
7.831171499999999952e+00 2.241117200000000143e+00 -1.583333099999999938e+00
9.822836900000000426e+00 2.809235300000000102e+00 -1.618158200000000102e+00
1.309031099999999981e+01 3.738758600000000154e+00 -1.671559999999999935e+00
1.872288299999999950e+01 5.340424999999999756e+00 -1.703371900000000050e+00
2.573229999999999862e+01 7.334900900000000057e+00 -1.402289600000000025e+00
2.569701399999999936e+01 7.315146000000000370e+00 -4.663632200000000227e-01
5.576586700000000008e+00 1.578017400000000015e+00 -1.552914600000000034e+00
6.544466500000000408e+00 1.850666499999999992e+00 -1.570158500000000013e+00
7.833279100000000383e+00 2.212168500000000204e+00 -1.582188399999999939e+00
9.804064800000000801e+00 2.766883899999999841e+00 -1.613465099999999985e+00
1.308035300000000056e+01 3.686582599999999932e+00 -1.668635099999999927e+00
1.882196199999999919e+01 5.297704200000000085e+00 -1.710693000000000019e+00
2.601153599999999955e+01 7.316424399999999828e+00 -1.416106300000000040e+00
2.587448099999999940e+01 7.268116499999999647e+00 -4.691206800000000121e-01
5.574347000000000385e+00 1.557434900000000066e+00 -1.550843999999999889e+00
6.539624700000000068e+00 1.824666399999999911e+00 -1.567459099999999994e+00
7.833389300000000333e+00 2.182701799999999803e+00 -1.580661799999999895e+00
9.794634800000000752e+00 2.727343100000000131e+00 -1.610336400000000001e+00
1.303959299999999999e+01 3.626006600000000191e+00 -1.661810500000000079e+00
1.898432199999999881e+01 5.271959299999999793e+00 -1.723766399999999921e+00
2.625631299999999868e+01 7.286460899999999796e+00 -1.428039000000000058e+00
2.616755699999999862e+01 7.251992699999999736e+00 -4.739724399999999949e-01
5.581343200000000060e+00 1.539456099999999994e+00 -1.551361699999999955e+00
6.545324800000000387e+00 1.804113899999999937e+00 -1.567459099999999994e+00
7.828849800000000414e+00 2.154957299999999965e+00 -1.578372099999999945e+00
9.791728000000000876e+00 2.693412499999999987e+00 -1.608459199999999978e+00
1.300880699999999912e+01 3.573458200000000140e+00 -1.656448200000000037e+00
1.900271000000000043e+01 5.212813899999999556e+00 -1.723940699999999993e+00
2.657570799999999878e+01 7.285260700000000256e+00 -1.444158400000000064e+00
2.649495100000000036e+01 7.253166700000000411e+00 -4.794874199999999975e-01
5.580826300000000018e+00 1.519415100000000018e+00 -1.549808700000000039e+00
6.555342699999999745e+00 1.782279500000000017e+00 -1.568358799999999942e+00
7.824956399999999590e+00 2.124527699999999797e+00 -1.576082299999999936e+00
9.793442699999999945e+00 2.657149299999999936e+00 -1.607207700000000017e+00
1.298671399999999920e+01 3.518679399999999902e+00 -1.652061000000000002e+00
1.896694000000000102e+01 5.131884099999999727e+00 -1.719059899999999974e+00
2.690560699999999983e+01 7.274808900000000023e+00 -1.460696599999999901e+00
2.677300999999999931e+01 7.228929499999999564e+00 -4.840599600000000113e-01
5.577027799999999758e+00 1.496448199999999895e+00 -1.547220500000000110e+00
6.552113099999999690e+00 1.756860899999999948e+00 -1.566109299999999926e+00
7.822842099999999910e+00 2.094663100000000000e+00 -1.574174200000000079e+00
9.764492999999999867e+00 2.612737899999999946e+00 -1.600950400000000107e+00
1.297206800000000015e+01 3.466154299999999910e+00 -1.648648600000000020e+00
1.900014099999999928e+01 5.069749400000000072e+00 -1.720454600000000056e+00
2.714697800000000072e+01 7.238470600000000310e+00 -1.472419900000000004e+00
2.704542500000000160e+01 7.201281999999999961e+00 -4.885277499999999828e-01
5.585694300000000112e+00 1.478935799999999912e+00 -1.548255799999999960e+00
6.550670600000000121e+00 1.731984699999999933e+00 -1.564309699999999914e+00
7.822515000000000107e+00 2.065336900000000142e+00 -1.572647799999999929e+00
9.762094499999999897e+00 2.575611400000000106e+00 -1.599073100000000025e+00
1.294569699999999912e+01 3.410733899999999874e+00 -1.643773900000000010e+00
1.902157199999999904e+01 5.004422700000000113e+00 -1.720803099999999919e+00
2.738842199999999849e+01 7.200548600000000299e+00 -1.484143100000000048e+00
2.732763500000000079e+01 7.174384599999999779e+00 -4.931701099999999949e-01
5.591078300000000390e+00 1.458449200000000001e+00 -1.548255799999999960e+00
6.541590199999999911e+00 1.705177100000000001e+00 -1.560710499999999890e+00
7.833476499999999731e+00 2.039005500000000026e+00 -1.573410999999999893e+00
9.761466999999999672e+00 2.539035600000000059e+00 -1.597508900000000009e+00
1.293831100000000056e+01 3.360530400000000029e+00 -1.641336399999999918e+00
1.899264000000000152e+01 4.925984399999999930e+00 -1.716619600000000023e+00
2.749072500000000119e+01 7.124938000000000216e+00 -1.488329999999999931e+00
2.765644999999999953e+01 7.157603700000000124e+00 -4.986501300000000247e-01
5.597754499999999744e+00 1.440383100000000027e+00 -1.548773399999999967e+00
6.549390800000000290e+00 1.682815699999999914e+00 -1.561160399999999893e+00
7.815823100000000245e+00 2.005311700000000030e+00 -1.568449999999999900e+00
9.728173299999999912e+00 2.494150600000000217e+00 -1.590625600000000084e+00
1.289611400000000074e+01 3.301570400000000127e+00 -1.634511800000000070e+00
1.895953199999999939e+01 4.846822699999999706e+00 -1.712087499999999984e+00
2.792347499999999982e+01 7.122795599999999894e+00 -5.030132499999999673e-01
5.584022000000000041e+00 1.416086900000000037e+00 -1.543597000000000108e+00
6.543600099999999919e+00 1.658216799999999935e+00 -1.558461099999999933e+00
7.805301199999999717e+00 1.975046000000000079e+00 -1.565015599999999951e+00
9.713408499999999890e+00 2.456068000000000140e+00 -1.586871099999999979e+00
1.288389600000000002e+01 3.252952099999999902e+00 -1.631586900000000062e+00
1.890595199999999920e+01 4.766384099999999790e+00 -1.705812200000000001e+00
2.834061799999999920e+01 7.129181400000000224e+00 -5.100989299999999504e-01
5.583064600000000155e+00 1.396157000000000092e+00 -1.542043999999999970e+00
6.558801700000000068e+00 1.637727300000000108e+00 -1.560710499999999890e+00
7.808338199999999674e+00 1.946836199999999906e+00 -1.564252100000000034e+00
9.679754300000000811e+00 2.411643000000000203e+00 -1.579988100000000006e+00
1.286049799999999976e+01 3.199329599999999996e+00 -1.627199499999999910e+00
1.890700299999999956e+01 4.696532200000000046e+00 -1.704417800000000094e+00
2.860018300000000124e+01 7.088438499999999642e+00 -5.143223999999999574e-01
5.590260500000000299e+00 1.375169499999999934e+00 -1.542561800000000094e+00
6.547729499999999980e+00 1.609488800000000053e+00 -1.556661499999999920e+00
7.809700999999999560e+00 1.916802200000000012e+00 -1.563107400000000036e+00
9.644402499999999989e+00 2.365324300000000157e+00 -1.572792200000000085e+00
1.285671199999999992e+01 3.148397699999999855e+00 -1.625249600000000072e+00
1.890860699999999994e+01 4.623412100000000358e+00 -1.703023299999999907e+00
2.753513699999999886e+01 6.727623499999999979e+00 -1.485503800000000041e+00
2.898537800000000075e+01 7.071239000000000274e+00 -5.207798500000000441e-01
5.591035399999999989e+00 1.355714599999999992e+00 -1.541526399999999963e+00
6.549519100000000371e+00 1.585707399999999989e+00 -1.555761600000000078e+00
7.804895400000000372e+00 1.886759499999999923e+00 -1.560817600000000027e+00
9.623797400000000835e+00 2.324689100000000064e+00 -1.568098999999999910e+00
1.282902999999999949e+01 3.094188200000000055e+00 -1.620374900000000062e+00
1.887426800000000071e+01 4.545256099999999577e+00 -1.698491200000000090e+00
2.752350399999999908e+01 6.623049299999999917e+00 -1.483619699999999986e+00
2.937347799999999864e+01 7.057382099999999880e+00 -5.273069700000000415e-01
5.597612899999999669e+00 1.336637000000000075e+00 -1.542043999999999970e+00
6.550950499999999899e+00 1.563073300000000110e+00 -1.554861800000000072e+00
7.792011300000000418e+00 1.856319100000000111e+00 -1.557001599999999986e+00
9.619923599999999908e+00 2.290015200000000029e+00 -1.566221800000000108e+00
1.279673099999999941e+01 3.041532500000000194e+00 -1.615012600000000020e+00
1.883495900000000134e+01 4.469755600000000051e+00 -1.693610499999999908e+00
2.758417899999999889e+01 6.540963200000000199e+00 -1.485713099999999898e+00
2.963801399999999830e+01 7.017057399999999667e+00 -5.316352199999999639e-01
5.586969899999999711e+00 1.314528799999999942e+00 -1.537903100000000078e+00
6.558263799999999755e+00 1.540643800000000008e+00 -1.555311700000000075e+00
7.783151100000000433e+00 1.825523599999999913e+00 -1.553948499999999955e+00
9.610549000000000675e+00 2.252366799999999891e+00 -1.563406099999999910e+00
1.278794000000000075e+01 2.992324599999999890e+00 -1.612575300000000045e+00
1.876508099999999857e+01 4.384033699999999811e+00 -1.685940900000000076e+00
2.752904300000000148e+01 6.426480800000000215e+00 -1.481526300000000074e+00
5.580458199999999813e+00 1.291428000000000020e+00 -1.534797200000000084e+00
6.573094399999999560e+00 1.519938299999999964e+00 -1.557561200000000090e+00
7.797128200000000398e+00 1.800108800000000064e+00 -1.555474999999999941e+00
9.604878400000000482e+00 2.215699900000000167e+00 -1.561215999999999937e+00
1.274414400000000036e+01 2.935189999999999966e+00 -1.605750599999999917e+00
1.874920099999999934e+01 4.311364199999999869e+00 -1.683151700000000028e+00
2.748123700000000014e+01 6.314239999999999853e+00 -1.477758200000000022e+00
5.580942600000000198e+00 1.272057900000000075e+00 -1.533761900000000011e+00
6.551758300000000368e+00 1.490929399999999960e+00 -1.551262600000000047e+00
7.797621300000000311e+00 1.771577600000000086e+00 -1.554330200000000106e+00
9.572101599999999877e+00 2.172973400000000055e+00 -1.554645800000000078e+00
1.273495300000000086e+01 2.886301500000000075e+00 -1.603313299999999941e+00
1.871360999999999919e+01 4.234462299999999679e+00 -1.678619599999999989e+00
2.750700600000000051e+01 6.219160600000000372e+00 -1.477967500000000101e+00
5.593108700000000155e+00 1.253282400000000019e+00 -1.535832499999999934e+00
6.545513200000000253e+00 1.465494000000000074e+00 -1.548563099999999970e+00
7.792262599999999928e+00 1.741776299999999944e+00 -1.552040599999999992e+00
9.575772300000000570e+00 2.138683100000000170e+00 -1.554019899999999899e+00
1.268294999999999995e+01 2.828002699999999869e+00 -1.595513600000000087e+00
1.869326999999999828e+01 4.161325500000000233e+00 -1.675482200000000033e+00
2.753634600000000177e+01 6.124832200000000171e+00 -1.478386200000000095e+00
5.591574200000000161e+00 1.233480799999999933e+00 -1.534279600000000077e+00
6.542975900000000067e+00 1.440961799999999959e+00 -1.546763499999999958e+00
7.777202100000000229e+00 1.709929699999999997e+00 -1.547842600000000068e+00
9.573533100000000573e+00 2.103127499999999817e+00 -1.552455700000000105e+00
1.266947700000000054e+01 2.778607099999999885e+00 -1.592588799999999916e+00
1.865708000000000055e+01 4.084963300000000075e+00 -1.670950099999999994e+00
2.751853799999999950e+01 6.020131100000000401e+00 -1.476292699999999902e+00
5.592280900000000443e+00 1.212161100000000102e+00 -1.533244300000000004e+00
6.557489399999999691e+00 1.420174400000000059e+00 -1.549012999999999973e+00
7.769690500000000277e+00 1.679869300000000010e+00 -1.545171400000000084e+00
9.563438400000000783e+00 2.065940100000000168e+00 -1.549639800000000012e+00
1.264804799999999929e+01 2.727678500000000117e+00 -1.588688899999999959e+00
1.858552600000000155e+01 4.001357099999999889e+00 -1.663280400000000103e+00
2.750423199999999824e+01 5.916494799999999721e+00 -1.474408600000000069e+00
5.588712700000000311e+00 1.191996300000000009e+00 -1.531173700000000082e+00
6.573841599999999730e+00 1.399715400000000054e+00 -1.551712500000000050e+00
7.775507499999999794e+00 1.652735700000000030e+00 -1.545171400000000084e+00
9.545470200000000460e+00 2.027216699999999872e+00 -1.545572500000000016e+00
1.261865500000000040e+01 2.675274599999999836e+00 -1.583814000000000055e+00
1.845513700000000057e+01 3.905932899999999819e+00 -1.650381199999999993e+00
2.748563800000000157e+01 5.812179999999999680e+00 -1.472315199999999935e+00
5.598512200000000050e+00 1.173668399999999945e+00 -1.532726599999999939e+00
6.551744499999999860e+00 1.372313099999999952e+00 -1.545413900000000007e+00
7.773258700000000410e+00 1.625332599999999905e+00 -1.543644800000000039e+00
9.525070200000000042e+00 1.989893600000000040e+00 -1.541192300000000071e+00
1.260413899999999998e+01 2.628548100000000165e+00 -1.580889299999999942e+00
1.839776600000000073e+01 3.830097199999999980e+00 -1.644106000000000067e+00
2.752431699999999992e+01 5.725061900000000037e+00 -1.473361799999999944e+00
5.598588900000000201e+00 1.154317599999999944e+00 -1.531691300000000089e+00
6.552677599999999991e+00 1.348647399999999941e+00 -1.544514100000000001e+00
7.778883900000000295e+00 1.598194499999999962e+00 -1.543644800000000039e+00
9.522283599999999737e+00 1.954644199999999943e+00 -1.539627999999999997e+00
1.258989900000000084e+01 2.579762699999999853e+00 -1.577964399999999934e+00
1.834466000000000108e+01 3.752273800000000215e+00 -1.638179499999999900e+00
2.752456099999999850e+01 5.624969499999999734e+00 -1.472315199999999935e+00
5.606767699999999799e+00 1.133576399999999929e+00 -1.532726599999999939e+00
6.549935800000000086e+00 1.323079600000000022e+00 -1.542714499999999989e+00
7.761595699999999987e+00 1.565010299999999965e+00 -1.539065399999999917e+00
9.521637899999999988e+00 1.918171899999999930e+00 -1.538376600000000094e+00
1.255645699999999998e+01 2.524981700000000107e+00 -1.572602199999999950e+00
1.829186999999999941e+01 3.671684500000000018e+00 -1.632252800000000059e+00
2.748624799999999979e+01 5.512246600000000107e+00 -1.469174999999999898e+00
5.599125899999999767e+00 1.112721800000000094e+00 -1.529620800000000003e+00
6.552603200000000072e+00 1.299827099999999902e+00 -1.542264599999999986e+00
7.757382400000000011e+00 1.536006500000000052e+00 -1.537157399999999896e+00
9.512773499999999771e+00 1.881854300000000091e+00 -1.535873700000000008e+00
1.253792800000000085e+01 2.475761199999999995e+00 -1.569189799999999968e+00
1.824202299999999966e+01 3.595477600000000162e+00 -1.626674900000000035e+00
2.747788600000000159e+01 5.410871499999999834e+00 -1.467709500000000000e+00
5.591599500000000056e+00 1.090949399999999958e+00 -1.526515000000000066e+00
6.545400599999999791e+00 1.275855100000000020e+00 -1.539565099999999909e+00
7.762433500000000208e+00 1.510271499999999989e+00 -1.537157399999999896e+00
9.495692299999999975e+00 1.845777299999999954e+00 -1.532119199999999903e+00
1.253047899999999970e+01 2.431142100000000195e+00 -1.567239899999999908e+00
1.815212999999999965e+01 3.515271199999999929e+00 -1.617610699999999957e+00
2.742116400000000098e+01 5.305311200000000227e+00 -1.463732000000000033e+00
5.591391999999999918e+00 1.071674699999999980e+00 -1.525479699999999994e+00
6.538330099999999589e+00 1.250803899999999969e+00 -1.536865699999999890e+00
7.775371599999999717e+00 1.484636999999999984e+00 -1.538683800000000046e+00
9.478792199999999113e+00 1.808180099999999957e+00 -1.528364800000000079e+00
1.254669099999999915e+01 2.388869800000000154e+00 -1.568214900000000078e+00
1.813297499999999829e+01 3.445930699999999902e+00 -1.614821800000000085e+00
2.743559300000000079e+01 5.208808399999999672e+00 -1.463522699999999954e+00
5.612554099999999657e+00 1.053403400000000101e+00 -1.530138400000000010e+00
6.525632400000000111e+00 1.223597299999999999e+00 -1.532816500000000026e+00
7.765322199999999953e+00 1.453241599999999911e+00 -1.535630800000000074e+00
9.469822900000000487e+00 1.770519600000000082e+00 -1.525861899999999993e+00
1.252804099999999998e+01 2.337772100000000020e+00 -1.564802400000000038e+00
1.806321499999999958e+01 3.364129300000000100e+00 -1.607500600000000057e+00
2.747020699999999849e+01 5.111145999999999745e+00 -1.464360099999999942e+00
5.616016400000000353e+00 1.034786800000000007e+00 -1.530138400000000010e+00
6.529863800000000218e+00 1.200812699999999955e+00 -1.532816500000000026e+00
7.762623800000000074e+00 1.424706900000000109e+00 -1.534104300000000087e+00
9.458456999999999226e+00 1.734248599999999918e+00 -1.523045900000000064e+00
1.254003200000000007e+01 2.294738300000000120e+00 -1.565290000000000070e+00
1.804740899999999826e+01 3.296040300000000034e+00 -1.605060200000000048e+00
2.748788300000000007e+01 5.015218700000000140e+00 -1.464360099999999942e+00
5.596781299999999959e+00 1.011057000000000095e+00 -1.523926899999999973e+00
6.535727999999999760e+00 1.179496600000000006e+00 -1.533266500000000088e+00
7.759576799999999608e+00 1.397570699999999944e+00 -1.532577999999999996e+00
9.446659099999999754e+00 1.699722900000000037e+00 -1.520230200000000087e+00
1.249677199999999999e+01 2.244021899999999903e+00 -1.558952799999999916e+00
1.797979399999999828e+01 3.222120499999999943e+00 -1.598087800000000058e+00
2.750435999999999837e+01 4.924043199999999842e+00 -1.464360099999999942e+00
5.592494499999999924e+00 9.911417399999999933e-01 -1.521856199999999992e+00
6.537886600000000215e+00 1.156334200000000090e+00 -1.532816500000000026e+00
7.764408099999999813e+00 1.370473999999999970e+00 -1.532577999999999996e+00
9.427246099999999629e+00 1.662275799999999970e+00 -1.516162900000000091e+00
1.246933699999999945e+01 2.194196700000000000e+00 -1.554565399999999986e+00
1.794383200000000045e+01 3.151072500000000165e+00 -1.593904299999999941e+00
2.759613600000000133e+01 4.841124999999999901e+00 -1.468337699999999968e+00
5.592283199999999788e+00 9.699758899999999517e-01 -1.520820999999999978e+00
6.524601500000000165e+00 1.130515799999999960e+00 -1.528767500000000057e+00
7.767210999999999643e+00 1.343026300000000006e+00 -1.532196399999999903e+00
9.407684299999999666e+00 1.624993899999999991e+00 -1.512095600000000095e+00
1.246909499999999937e+01 2.149304900000000185e+00 -1.553590400000000038e+00
1.791152800000000056e+01 3.080982899999999969e+00 -1.590069500000000025e+00
2.767191899999999904e+01 4.754906700000000264e+00 -1.471477700000000111e+00
5.604991400000000290e+00 9.530435200000000329e-01 -1.523409100000000072e+00
6.526587000000000138e+00 1.107406099999999949e+00 -1.528317600000000054e+00
7.764108199999999904e+00 1.314596099999999934e+00 -1.530669800000000080e+00
9.403561599999999743e+00 1.590495299999999945e+00 -1.510531199999999963e+00
1.241779999999999973e+01 2.095858100000000057e+00 -1.546278400000000053e+00
1.783572600000000108e+01 3.003876399999999780e+00 -1.582399700000000076e+00
2.797590599999999839e+01 4.706669299999999723e+00 -1.486759900000000023e+00
5.610352500000000298e+00 9.328118600000000482e-01 -1.523926899999999973e+00
6.540025199999999650e+00 1.086212200000000072e+00 -1.530567000000000011e+00
7.751218800000000186e+00 1.284595399999999943e+00 -1.527235399999999910e+00
9.385670700000000366e+00 1.553787199999999924e+00 -1.506776899999999975e+00
1.233103099999999941e+01 2.036966300000000007e+00 -1.534578900000000079e+00
1.782251000000000118e+01 2.937723899999999944e+00 -1.580308000000000046e+00
2.835477799999999959e+01 4.668684500000000348e+00 -1.506019500000000066e+00
5.605787799999999876e+00 9.129611300000000096e-01 -1.521856199999999992e+00
6.543776499999999885e+00 1.063377999999999934e+00 -1.530567000000000011e+00
7.742088800000000326e+00 1.255336500000000077e+00 -1.524563899999999972e+00
9.383236899999999991e+00 1.519754199999999944e+00 -1.505525400000000014e+00
1.237334000000000067e+01 1.999607799999999935e+00 -1.538966199999999951e+00
1.776577899999999843e+01 2.864705100000000115e+00 -1.574381500000000100e+00
2.880865500000000168e+01 4.640180100000000252e+00 -1.529256699999999913e+00
5.611004399999999670e+00 8.927135499999999668e-01 -1.522373900000000058e+00
6.539750599999999636e+00 1.039304100000000064e+00 -1.528767500000000057e+00
7.730911299999999819e+00 1.225842099999999935e+00 -1.521511099999999894e+00
9.367022499999999141e+00 1.483589599999999953e+00 -1.502083800000000080e+00
1.236455699999999958e+01 1.953934300000000013e+00 -1.537016299999999891e+00
1.770088399999999851e+01 2.790885900000000142e+00 -1.567757599999999973e+00
2.913639799999999980e+01 4.588703599999999660e+00 -1.545794799999999913e+00
5.612024800000000369e+00 8.738030199999999859e-01 -1.521856199999999992e+00
6.535635499999999709e+00 1.015274599999999916e+00 -1.526967799999999986e+00
7.707982999999999585e+00 1.194637100000000007e+00 -1.516168399999999972e+00
9.340910900000000794e+00 1.446050300000000011e+00 -1.497077900000000072e+00
1.233599000000000068e+01 1.905304600000000015e+00 -1.532628899999999961e+00
1.767113499999999959e+01 2.723007400000000189e+00 -1.564271299999999920e+00
5.622680700000000087e+00 8.553689100000000378e-01 -1.523926899999999973e+00
6.511993399999999710e+00 9.894988500000000409e-01 -1.520669199999999943e+00
7.727430799999999600e+00 1.171421800000000069e+00 -1.519221300000000108e+00
9.330030400000000057e+00 1.412702899999999984e+00 -1.494574999999999987e+00
1.230691099999999949e+01 1.859046100000000035e+00 -1.528241799999999984e+00
1.761702299999999966e+01 2.654895999999999923e+00 -1.558693399999999896e+00
2.933285899999999913e+01 4.415229300000000023e+00 -1.554587200000000058e+00
5.629307299999999792e+00 8.372908199999999912e-01 -1.524962099999999987e+00
6.519263699999999773e+00 9.673321200000000175e-01 -1.521568999999999949e+00
7.706224899999999600e+00 1.140705300000000033e+00 -1.514260299999999893e+00
9.338812799999999470e+00 1.380701699999999921e+00 -1.495200599999999991e+00
1.228975800000000085e+01 1.812602499999999894e+00 -1.525316799999999917e+00
1.752368200000000087e+01 2.578298999999999896e+00 -1.549629200000000040e+00
2.915048799999999929e+01 4.283779599999999910e+00 -1.544120099999999995e+00
5.624691499999999955e+00 8.155425800000000169e-01 -1.522891500000000065e+00
6.524528499999999731e+00 9.448503900000000399e-01 -1.522018899999999952e+00
7.690729100000000429e+00 1.110993300000000072e+00 -1.510443999999999898e+00
9.331843400000000344e+00 1.346404200000000051e+00 -1.493323399999999967e+00
1.227243099999999920e+01 1.766301300000000074e+00 -1.522391899999999909e+00
1.744974500000000006e+01 2.505226099999999789e+00 -1.542308100000000071e+00
5.613975499999999563e+00 7.949883899999999892e-01 -1.519268000000000063e+00
6.521998899999999821e+00 9.212504000000000248e-01 -1.520669199999999943e+00
7.692616000000000120e+00 1.083868599999999960e+00 -1.510062500000000085e+00
9.318882900000000191e+00 1.311342000000000008e+00 -1.490507699999999991e+00
1.225886299999999984e+01 1.720694900000000027e+00 -1.519954599999999934e+00
1.735380699999999976e+01 2.429653599999999969e+00 -1.533069599999999921e+00
5.620678899999999700e+00 7.749357199999999946e-01 -1.520303200000000077e+00
6.509730300000000192e+00 8.963535400000000042e-01 -1.517070099999999977e+00
7.698298000000000307e+00 1.057274800000000070e+00 -1.510443999999999898e+00
9.329273199999999377e+00 1.279612200000000088e+00 -1.491446300000000003e+00
1.224119499999999938e+01 1.674661200000000072e+00 -1.517029799999999984e+00
1.729901100000000014e+01 2.360446699999999787e+00 -1.527491699999999897e+00
5.632791000000000103e+00 7.575784899999999933e-01 -1.522891500000000065e+00
6.505093600000000365e+00 8.725900100000000270e-01 -1.515270499999999965e+00
7.699995999999999619e+00 1.030133799999999988e+00 -1.510062500000000085e+00
9.321935699999999159e+00 1.245471500000000065e+00 -1.489568900000000085e+00
1.221941900000000025e+01 1.628247100000000058e+00 -1.513617400000000002e+00
1.725184399999999840e+01 2.292693600000000220e+00 -1.522610900000000100e+00
5.641276399999999747e+00 7.376810299999999598e-01 -1.524444499999999980e+00
6.519693900000000042e+00 8.513898300000000141e-01 -1.517969700000000088e+00
7.687969700000000017e+00 1.001222999999999974e+00 -1.507009499999999891e+00
9.334062599999999321e+00 1.213940900000000100e+00 -1.490820500000000104e+00
1.220140499999999939e+01 1.582522200000000101e+00 -1.510692600000000052e+00
1.717280200000000079e+01 2.221209299999999942e+00 -1.514941099999999929e+00
5.626443899999999942e+00 7.167736900000000189e-01 -1.519785600000000070e+00
6.530358800000000130e+00 8.296104699999999887e-01 -1.519769399999999937e+00
7.687522900000000270e+00 9.738852399999999854e-01 -1.506246299999999927e+00
9.334322900000000089e+00 1.180857700000000010e+00 -1.490194699999999983e+00
1.218716000000000044e+01 1.537433899999999909e+00 -1.508255099999999960e+00
1.709346999999999994e+01 2.150321700000000114e+00 -1.507271500000000097e+00
5.619447199999999754e+00 6.949626199999999754e-01 -1.517197499999999977e+00
6.542885799999999641e+00 8.080027100000000129e-01 -1.522018899999999952e+00
7.692823399999999978e+00 9.472900600000000448e-01 -1.506627900000000020e+00
9.326624900000000551e+00 1.146818600000000021e+00 -1.488317600000000018e+00
1.216092500000000065e+01 1.491026600000000091e+00 -1.504355300000000062e+00
1.704549799999999848e+01 2.083867099999999972e+00 -1.502390700000000079e+00
5.625556900000000304e+00 6.767839799999999517e-01 -1.518232699999999991e+00
6.535991700000000293e+00 7.839966400000000224e-01 -1.519769399999999937e+00
7.682437900000000042e+00 9.187973699999999466e-01 -1.503956599999999977e+00
9.308995200000000025e+00 1.111676600000000015e+00 -1.484876000000000085e+00
1.215422900000000084e+01 1.447156399999999898e+00 -1.502892899999999976e+00
1.698144100000000023e+01 2.015902500000000153e+00 -1.496115599999999990e+00
5.637363900000000427e+00 6.592482899999999590e-01 -1.520820999999999978e+00
6.530680199999999935e+00 7.625565499999999997e-01 -1.517969700000000088e+00
7.687236300000000355e+00 8.948861999999999650e-01 -1.504338100000000011e+00
9.306554800000000682e+00 1.081743600000000027e+00 -1.483937300000000015e+00
1.214294100000000043e+01 1.407139899999999999e+00 -1.500942900000000080e+00
1.697185899999999847e+01 1.960709999999999953e+00 -1.494721200000000083e+00
5.633760900000000404e+00 6.398949000000000442e-01 -1.519268000000000063e+00
6.525556599999999818e+00 7.388799200000000234e-01 -1.516170100000000076e+00
7.663001500000000021e+00 8.649624000000000201e-01 -1.498995499999999925e+00
9.308311500000000294e+00 1.049027300000000107e+00 -1.483624499999999902e+00
1.212410599999999938e+01 1.362082000000000015e+00 -1.498018099999999908e+00
1.691127799999999937e+01 1.893919499999999978e+00 -1.488794399999999962e+00
5.628603000000000023e+00 6.164318300000000139e-01 -1.517197499999999977e+00
6.534157300000000390e+00 7.144551900000000177e-01 -1.517519999999999980e+00
7.664315199999999884e+00 8.353177299999999805e-01 -1.498613999999999891e+00
9.310306499999999374e+00 1.013071300000000008e+00 -1.483311700000000011e+00
1.211345900000000064e+01 1.313803599999999960e+00 -1.496068200000000070e+00
1.687088599999999872e+01 1.823827499999999935e+00 -1.484610999999999903e+00
5.619090100000000199e+00 5.965407499999999530e-01 -1.514091700000000040e+00
6.542425200000000274e+00 6.922557999999999767e-01 -1.518869599999999931e+00
7.669135999999999953e+00 8.087666599999999706e-01 -1.498995499999999925e+00
9.309857400000000283e+00 9.801499799999999762e-01 -1.482685899999999890e+00
1.211007399999999912e+01 1.270685599999999971e+00 -1.495093199999999900e+00
1.682562599999999975e+01 1.759541599999999928e+00 -1.480078900000000086e+00
5.634489499999999929e+00 5.792853199999999925e-01 -1.517715099999999984e+00
6.532935600000000065e+00 6.705062400000000311e-01 -1.516170100000000076e+00
7.671639400000000109e+00 7.846672500000000383e-01 -1.498995499999999925e+00
9.299134300000000408e+00 9.494945999999999664e-01 -1.480495799999999917e+00
1.208240900000000018e+01 1.229415799999999948e+00 -1.491193400000000002e+00
1.680332200000000142e+01 1.703855200000000014e+00 -1.477638500000000077e+00
5.636379200000000367e+00 5.605986699999999656e-01 -1.517715099999999984e+00
6.529418899999999581e+00 6.471195800000000276e-01 -1.514820499999999903e+00
7.686053799999999825e+00 7.590426799999999696e-01 -1.501285299999999934e+00
9.302391999999999328e+00 9.170262799999999714e-01 -1.480495799999999917e+00
1.205896800000000013e+01 1.184518500000000030e+00 -1.487781000000000020e+00
1.676157600000000159e+01 1.640535800000000100e+00 -1.473455100000000018e+00
5.642336399999999585e+00 5.393214200000000513e-01 -1.518750400000000056e+00
6.523987299999999934e+00 6.224448700000000390e-01 -1.513020899999999891e+00
7.684875500000000415e+00 7.304932499999999829e-01 -1.500521999999999911e+00
9.309623699999999502e+00 8.833003600000000066e-01 -1.481121499999999980e+00
1.203951299999999947e+01 1.138067399999999951e+00 -1.484856200000000070e+00
1.673177099999999839e+01 1.575723800000000008e+00 -1.470317499999999944e+00
5.615238200000000290e+00 5.179473199999999888e-01 -1.510985900000000104e+00
6.520298499999999997e+00 5.991314100000000309e-01 -1.511671200000000104e+00
7.683468300000000362e+00 7.033073300000000083e-01 -1.499758799999999948e+00
9.300848000000000226e+00 8.497175000000000145e-01 -1.479244400000000015e+00
1.201178200000000018e+01 1.093158599999999980e+00 -1.480956299999999892e+00
1.669748500000000035e+01 1.513715099999999980e+00 -1.466831199999999891e+00
5.615088000000000079e+00 4.981711200000000228e-01 -1.510468200000000039e+00
6.539720499999999603e+00 5.790511400000000197e-01 -1.515720399999999968e+00
7.683802599999999927e+00 6.776531900000000164e-01 -1.499377100000000018e+00
9.297711400000000737e+00 8.183479900000000251e-01 -1.478305800000000003e+00
1.199556499999999915e+01 1.051589000000000107e+00 -1.478519099999999975e+00
1.663889700000000005e+01 1.452793699999999966e+00 -1.461253300000000088e+00
5.624408700000000039e+00 4.802038699999999771e-01 -1.512538799999999961e+00
6.518400200000000311e+00 5.542429700000000015e-01 -1.510321500000000094e+00
7.688077899999999687e+00 6.509911999999999921e-01 -1.499758799999999948e+00
9.290669400000000522e+00 7.850626099999999941e-01 -1.476741400000000093e+00
1.197542600000000057e+01 1.007709500000000036e+00 -1.475594199999999967e+00
1.661805899999999880e+01 1.392536999999999914e+00 -1.458987400000000045e+00
5.631826399999999566e+00 4.610448500000000061e-01 -1.514091700000000040e+00
6.514375700000000435e+00 5.321463899999999692e-01 -1.508971700000000027e+00
7.688237700000000174e+00 6.253317000000000458e-01 -1.499377100000000018e+00
9.297159199999999402e+00 7.545664300000000102e-01 -1.477367000000000097e+00
1.195100000000000051e+01 9.657503400000000404e-01 -1.472181799999999985e+00
1.658683600000000169e+01 1.334548999999999985e+00 -1.455849600000000077e+00
5.631397699999999951e+00 4.422136199999999739e-01 -1.513573999999999975e+00
6.514251200000000352e+00 5.092501000000000388e-01 -1.508521900000000082e+00
7.678628400000000020e+00 5.975822200000000528e-01 -1.497087499999999904e+00
9.299735999999999336e+00 7.221061600000000524e-01 -1.477367000000000097e+00
1.193054899999999918e+01 9.222000200000000092e-01 -1.469257000000000035e+00
1.655960800000000077e+01 1.274191999999999991e+00 -1.453060599999999924e+00
5.613716600000000057e+00 4.201274199999999737e-01 -1.508397599999999894e+00
6.519875500000000379e+00 4.868027300000000168e-01 -1.509421700000000088e+00
7.678710899999999562e+00 5.706276900000000207e-01 -1.496705900000000034e+00
9.314019200000000609e+00 6.905179599999999862e-01 -1.479244400000000015e+00
1.191389799999999966e+01 8.790850000000000053e-01 -1.466819499999999943e+00
1.652024099999999862e+01 1.213173599999999963e+00 -1.449225800000000008e+00
5.615078900000000317e+00 4.015077699999999861e-01 -1.508397599999999894e+00
6.523478500000000402e+00 4.641777000000000264e-01 -1.509871600000000091e+00
7.676738300000000237e+00 5.435448299999999788e-01 -1.495942600000000011e+00
9.304550199999999549e+00 6.571685699999999519e-01 -1.477367000000000097e+00
1.189313199999999959e+01 8.358249700000000004e-01 -1.463894699999999993e+00
1.648860200000000020e+01 1.152993699999999899e+00 -1.446088199999999935e+00
5.620500599999999736e+00 3.792256999999999989e-01 -1.509432899999999966e+00
6.513546899999999695e+00 4.383392899999999925e-01 -1.507172100000000015e+00
7.674851399999999657e+00 5.138001399999999608e-01 -1.495179400000000047e+00
9.307005900000000054e+00 6.214346899999999563e-01 -1.477367000000000097e+00
1.188040699999999994e+01 7.890971300000000355e-01 -1.461944700000000097e+00
1.646904899999999827e+01 1.088101100000000043e+00 -1.443996400000000069e+00
5.615943399999999919e+00 3.602155100000000165e-01 -1.507880000000000109e+00
6.501424300000000045e+00 4.147299799999999981e-01 -1.504022799999999993e+00
7.682476000000000305e+00 4.873813399999999962e-01 -1.496324299999999941e+00
9.317004199999999514e+00 5.894398100000000085e-01 -1.478618599999999894e+00
1.185733399999999982e+01 7.460040999999999478e-01 -1.458776099999999909e+00
1.645286199999999965e+01 1.029366299999999956e+00 -1.442253199999999902e+00
5.622951500000000102e+00 3.409593100000000154e-01 -1.509432899999999966e+00
6.502763700000000036e+00 3.931725600000000043e-01 -1.504022799999999993e+00
7.678170699999999904e+00 4.615471099999999827e-01 -1.495179400000000047e+00
9.307075499999999835e+00 5.578374900000000469e-01 -1.476741400000000093e+00
1.183794499999999950e+01 7.053775799999999485e-01 -1.456095099999999976e+00
1.642834099999999964e+01 9.731470300000000240e-01 -1.439812899999999951e+00
5.608621600000000207e+00 3.214279400000000231e-01 -1.505291799999999958e+00
6.507987499999999592e+00 3.706911800000000090e-01 -1.504922700000000058e+00
7.662094100000000019e+00 4.337454099999999979e-01 -1.491744799999999982e+00
9.283327099999999277e+00 5.238969300000000384e-01 -1.472674100000000097e+00
1.183240699999999990e+01 6.636090300000000441e-01 -1.455120100000000027e+00
1.637195799999999934e+01 9.124650399999999495e-01 -1.434583699999999906e+00
5.605904100000000057e+00 3.006607600000000269e-01 -1.504256500000000107e+00
6.505350100000000246e+00 3.477620499999999892e-01 -1.504022799999999993e+00
7.671403399999999984e+00 4.074114899999999873e-01 -1.493271199999999910e+00
9.257483499999999310e+00 4.900245699999999927e-01 -1.468293899999999930e+00
1.182275800000000032e+01 6.216735199999999795e-01 -1.453657600000000105e+00
1.636310399999999987e+01 8.546983599999999903e-01 -1.433537700000000026e+00
2.564004699999999914e+01 1.334764000000000062e+00 -1.345557499999999962e+00
5.603011600000000314e+00 2.818762400000000001e-01 -1.503221200000000035e+00
6.498739200000000160e+00 3.246644399999999986e-01 -1.502223300000000039e+00
7.676701099999999833e+00 3.808269799999999816e-01 -1.494034499999999932e+00
9.255190799999999385e+00 4.575137799999999810e-01 -1.467668100000000031e+00
1.179908000000000001e+01 5.791323800000000022e-01 -1.450488999999999917e+00
1.630628799999999856e+01 7.946614600000000417e-01 -1.428308399999999923e+00
5.609704500000000316e+00 2.635648800000000014e-01 -1.504774099999999892e+00
6.489993600000000029e+00 3.037921199999999988e-01 -1.499973699999999965e+00
7.671976100000000187e+00 3.564325600000000094e-01 -1.492889600000000039e+00
9.252636900000000608e+00 4.282502200000000148e-01 -1.467042399999999969e+00
1.177506299999999939e+01 5.408797899999999714e-01 -1.447320500000000010e+00
1.630870399999999876e+01 7.434329400000000421e-01 -1.428308399999999923e+00
5.614408000000000065e+00 2.451306600000000002e-01 -1.505809399999999965e+00
6.489067600000000269e+00 2.810499100000000139e-01 -1.499523900000000021e+00
7.655520000000000103e+00 3.288970299999999791e-01 -1.489455100000000032e+00
9.256048200000000392e+00 3.960362700000000236e-01 -1.467355299999999918e+00
1.176497799999999927e+01 4.992769100000000182e-01 -1.445858000000000088e+00
1.629527500000000018e+01 6.858259399999999673e-01 -1.426914000000000016e+00
2.545269599999999954e+01 1.066775900000000110e+00 -1.335090300000000063e+00
5.595965399999999867e+00 2.237804800000000038e-01 -1.500633099999999942e+00
6.486114500000000227e+00 2.582403400000000127e-01 -1.498623999999999956e+00
7.652698499999999626e+00 3.020154199999999789e-01 -1.488691900000000068e+00
9.255400699999999148e+00 3.636442400000000075e-01 -1.467042399999999969e+00
1.178450300000000084e+01 4.588984799999999975e-01 -1.448051699999999942e+00
1.624580600000000175e+01 6.269463899999999645e-01 -1.422381899999999977e+00
2.545626400000000089e+01 9.779403800000000535e-01 -1.335090300000000063e+00
5.600537799999999677e+00 2.053623800000000110e-01 -1.501668299999999956e+00
6.490871399999999625e+00 2.357439199999999957e-01 -1.499523900000000021e+00
7.655667799999999801e+00 2.753691999999999807e-01 -1.489073499999999939e+00
9.230949400000000082e+00 3.304223399999999811e-01 -1.462975099999999973e+00
1.178008099999999914e+01 4.175459699999999885e-01 -1.447320500000000010e+00
1.622002000000000166e+01 5.692515400000000003e-01 -1.419941499999999968e+00
2.525991799999999898e+01 8.820983799999999597e-01 -1.324623099999999942e+00
5.595460899999999960e+00 1.846441000000000054e-01 -1.500115499999999935e+00
6.483864299999999581e+00 2.128276799999999913e-01 -1.497724300000000008e+00
7.646771000000000207e+00 2.483272599999999941e-01 -1.487165300000000023e+00
9.230073000000000860e+00 2.981320900000000162e-01 -1.462662200000000023e+00
1.177353100000000019e+01 3.761722100000000069e-01 -1.446345599999999898e+00
1.620995900000000134e+01 5.122476799999999830e-01 -1.418895599999999924e+00
2.526284199999999913e+01 7.939247499999999569e-01 -1.324623099999999942e+00
5.599904099999999829e+00 1.662036299999999911e-01 -1.501150699999999949e+00
6.468984100000000126e+00 1.897377500000000106e-01 -1.494124999999999925e+00
7.657403500000000030e+00 2.219158400000000031e-01 -1.489073499999999939e+00
9.223158800000000213e+00 2.656813299999999933e-01 -1.461410799999999899e+00
1.177080199999999977e+01 3.349565899999999985e-01 -1.445858000000000088e+00
1.618774799999999914e+01 4.550006100000000275e-01 -1.416803800000000058e+00
2.519358599999999981e+01 7.037218200000000534e-01 -1.320854900000000054e+00
5.606294600000000017e+00 1.448486900000000022e-01 -1.502703499999999970e+00
6.465740199999999938e+00 1.659248500000000126e-01 -1.493225199999999919e+00
7.636577100000000229e+00 1.933037900000000031e-01 -1.484875699999999910e+00
9.231969799999999893e+00 2.320755999999999930e-01 -1.462662200000000023e+00
1.175210700000000053e+01 2.913228600000000168e-01 -1.443420600000000054e+00
1.615345599999999848e+01 3.947784599999999977e-01 -1.413666199999999984e+00
2.512411499999999975e+01 6.096394099999999927e-01 -1.317086699999999944e+00
5.589361700000000432e+00 1.258664300000000014e-01 -1.498044799999999954e+00
6.466280499999999876e+00 1.433555499999999983e-01 -1.493225199999999919e+00
7.631316700000000175e+00 1.665154699999999988e-01 -1.483730800000000016e+00
9.224823999999999913e+00 1.996795100000000045e-01 -1.461410799999999899e+00
1.174511299999999991e+01 2.501263599999999920e-01 -1.442445600000000105e+00
1.614278200000000041e+01 3.381429899999999766e-01 -1.412620299999999940e+00
2.501826300000000103e+01 5.196895000000000264e-01 -1.311434400000000000e+00
5.582040799999999692e+00 1.062066599999999944e-01 -1.495974300000000090e+00
6.470616299999999654e+00 1.219834600000000019e-01 -1.494124999999999925e+00
7.629864200000000096e+00 1.411733900000000097e-01 -1.483349199999999923e+00
9.231361400000000828e+00 1.691938500000000067e-01 -1.462349399999999910e+00
1.174190899999999971e+01 2.111077799999999949e-01 -1.441958199999999968e+00
1.612389599999999845e+01 2.842617900000000142e-01 -1.410877299999999890e+00
2.497192400000000134e+01 4.358915999999999902e-01 -1.308922399999999930e+00
5.588157700000000006e+00 8.778484899999999813e-02 -1.497527199999999947e+00
6.457363100000000244e+00 9.918483300000000003e-02 -1.490975600000000068e+00
7.634236300000000419e+00 1.145998800000000012e-01 -1.484112499999999946e+00
9.229920399999999248e+00 1.369375999999999927e-01 -1.462036600000000020e+00
