# .PCD v0.7 - Point Cloud Data file format
VERSION 0.7
FIELDS x y z
SIZE 4 4 4
TYPE F F F
COUNT 1 1 1
WIDTH 629
HEIGHT 1
VIEWPOINT 0 0 0 1 0 0 0
POINTS 629
DATA ascii
4.982065200000000083e+00 3.926138900000000209e+00 -1.464431400000000050e+00
4.997275799999999712e+00 3.909923800000000060e+00 -1.464881300000000053e+00
5.000121599999999944e+00 3.884086400000000161e+00 -1.461732000000000031e+00
5.007476300000000435e+00 3.861849799999999888e+00 -1.459932400000000019e+00
5.031757800000000280e+00 3.852638699999999972e+00 -1.463081700000000041e+00
6.052898899999999749e+00 4.631139799999999696e+00 -1.481441100000000066e+00
5.036749399999999710e+00 3.830035000000000078e+00 -1.460832200000000025e+00
6.055716000000000321e+00 4.601540599999999870e+00 -1.478388199999999930e+00
5.054753299999999783e+00 3.815953299999999881e+00 -1.462182000000000093e+00
6.076444600000000307e+00 4.583919500000000369e+00 -1.479532999999999987e+00
5.064261899999999983e+00 3.796830899999999787e+00 -1.461282100000000028e+00
6.096324899999999936e+00 4.567276999999999809e+00 -1.480677800000000044e+00
5.068106199999999895e+00 3.772147700000000103e+00 -1.458582800000000068e+00
6.116955800000000387e+00 4.549484699999999826e+00 -1.481822699999999937e+00
5.076537599999999983e+00 3.750962700000000094e+00 -1.457233000000000001e+00
6.110688699999999862e+00 4.511777399999999716e+00 -1.476480100000000073e+00
5.097457900000000208e+00 3.738981499999999958e+00 -1.459482600000000074e+00
6.115315899999999694e+00 4.482296500000000350e+00 -1.473808800000000030e+00
5.114555799999999763e+00 3.725497499999999906e+00 -1.460832200000000025e+00
6.122208099999999931e+00 4.456217299999999604e+00 -1.471900699999999951e+00
7.555240200000000073e+00 5.497266299999999717e+00 -1.479870000000000019e+00
5.119633699999999621e+00 3.701910999999999952e+00 -1.458582800000000068e+00
6.134544799999999576e+00 4.432518499999999584e+00 -1.471137399999999928e+00
7.555168600000000012e+00 5.456979300000000421e+00 -1.476115700000000031e+00
5.117973799999999684e+00 3.670869099999999996e+00 -1.454083699999999979e+00
6.146733300000000177e+00 4.405497999999999692e+00 -1.469992600000000094e+00
7.553583599999999620e+00 5.411823700000000237e+00 -1.471735400000000027e+00
5.138693299999999908e+00 3.658634199999999836e+00 -1.456333300000000053e+00
6.149276699999999707e+00 4.374908900000000322e+00 -1.466939599999999899e+00
7.559549299999999583e+00 5.376267000000000351e+00 -1.469232400000000105e+00
5.154616800000000332e+00 3.642922200000000110e+00 -1.457233000000000001e+00
6.151678600000000330e+00 4.344361300000000092e+00 -1.463886699999999985e+00
7.565361000000000224e+00 5.340730699999999942e+00 -1.466729500000000019e+00
8.910236400000000501e+00 6.285486699999999871e+00 -1.338856700000000011e+00
5.168896700000000344e+00 3.626027600000000017e+00 -1.457683000000000062e+00
6.168414600000000192e+00 4.323986500000000177e+00 -1.464268300000000078e+00
7.574249700000000196e+00 5.307490300000000438e+00 -1.464852299999999996e+00
8.932124099999999345e+00 6.254343000000000430e+00 -1.338856700000000011e+00
5.173867699999999736e+00 3.605313300000000165e+00 -1.455883299999999991e+00
6.183578500000000311e+00 4.305709799999999809e+00 -1.464649899999999949e+00
7.573053800000000280e+00 5.271253100000000025e+00 -1.461410799999999899e+00
8.958249999999999602e+00 6.230783500000000252e+00 -1.339831699999999959e+00
5.191228899999999591e+00 3.590557599999999905e+00 -1.457233000000000001e+00
6.193726500000000357e+00 4.280748799999999576e+00 -1.463505099999999892e+00
7.583281500000000008e+00 5.239173400000000314e+00 -1.459846500000000047e+00
8.966874100000000070e+00 6.190454500000000415e+00 -1.337881799999999899e+00
5.196319100000000191e+00 3.565994299999999839e+00 -1.454983600000000044e+00
6.196422600000000003e+00 4.249134500000000259e+00 -1.460452099999999920e+00
7.591028699999999851e+00 5.203524100000000097e+00 -1.457656400000000074e+00
8.989504800000000628e+00 6.157545100000000105e+00 -1.337881799999999899e+00
1.117688799999999993e+01 7.650115999999999694e+00 -1.184969500000000009e+00
1.211165300000000045e+01 8.280614899999999778e+00 -2.560966000000000076e-01
5.216789200000000015e+00 3.553317799999999860e+00 -1.457233000000000001e+00
6.203099700000000105e+00 4.221960499999999783e+00 -1.458544000000000063e+00
7.604245200000000260e+00 5.173662199999999878e+00 -1.456717700000000004e+00
9.007657099999999417e+00 6.123902799999999758e+00 -1.337394399999999983e+00
1.122330200000000033e+01 7.624486400000000330e+00 -1.187061300000000097e+00
1.212447399999999931e+01 8.233599699999999189e+00 -7.680825000000000014e-01
1.213883200000000073e+01 8.237160700000000446e+00 -2.560617000000000032e-01
5.235000099999999712e+00 3.540367100000000100e+00 -1.459032700000000071e+00
6.218693700000000213e+00 4.202464599999999884e+00 -1.458925599999999934e+00
7.608263499999999624e+00 5.139572600000000158e+00 -1.454214799999999919e+00
9.027915999999999386e+00 6.093995999999999746e+00 -1.337394399999999983e+00
1.126174100000000067e+01 7.596136600000000350e+00 -1.188455800000000062e+00
1.354978700000000025e+01 9.160101900000000796e+00 8.571583000000000396e-01
5.242473600000000289e+00 3.518812399999999840e+00 -1.457683000000000062e+00
6.231695700000000393e+00 4.179636000000000351e+00 -1.458544000000000063e+00
7.614673599999999709e+00 5.105281800000000203e+00 -1.452024699999999946e+00
9.057380699999999507e+00 6.067967399999999678e+00 -1.338612899999999994e+00
1.130804900000000046e+01 7.570088400000000384e+00 -1.190547599999999928e+00
1.236084499999999942e+01 8.265504800000000429e+00 -2.595521800000000212e-01
5.250870700000000113e+00 3.499245199999999834e+00 -1.456783200000000056e+00
6.248788799999999810e+00 4.161125700000000371e+00 -1.459307200000000027e+00
7.624985699999999866e+00 5.075621599999999844e+00 -1.450773199999999985e+00
9.077451699999999235e+00 6.037900399999999834e+00 -1.338612899999999994e+00
1.134139099999999978e+01 7.538058300000000322e+00 -1.191419100000000064e+00
1.235858200000000018e+01 8.211026199999999164e+00 -7.776076800000000233e-01
1.240318100000000001e+01 8.234419799999999512e+00 -2.598663299999999787e-01
5.261426000000000158e+00 3.479824100000000087e+00 -1.456333300000000053e+00
6.255085499999999854e+00 4.133877299999999977e+00 -1.457399200000000006e+00
7.645949800000000351e+00 5.051158000000000037e+00 -1.451399099999999942e+00
9.093504899999999225e+00 6.002894399999999742e+00 -1.337881799999999899e+00
1.136763599999999919e+01 7.498420699999999606e+00 -1.191419100000000064e+00
1.348932600000000015e+01 8.894572300000000098e+00 -8.467957999999999874e-01
5.273541500000000326e+00 3.461435300000000215e+00 -1.456333300000000053e+00
6.264553499999999886e+00 4.108785600000000038e+00 -1.456254399999999949e+00
7.655275800000000075e+00 5.019020600000000165e+00 -1.449834700000000032e+00
9.122704499999999328e+00 5.976557299999999628e+00 -1.339100500000000027e+00
1.140874200000000016e+01 7.468518300000000387e+00 -1.192987900000000101e+00
1.255264500000000005e+01 8.214223900000000356e+00 -7.861907500000000493e-01
1.258422200000000046e+01 8.228606199999999760e+00 -2.624492900000000017e-01
5.295388199999999657e+00 3.449389000000000038e+00 -1.459032700000000071e+00
6.273922400000000010e+00 4.083678700000000106e+00 -1.455109500000000056e+00
7.667780900000000344e+00 4.989037500000000236e+00 -1.448896100000000020e+00
9.145176899999999165e+00 5.945755499999999749e+00 -1.339344300000000043e+00
1.142638700000000007e+01 7.423224399999999612e+00 -1.192116299999999907e+00
1.261474399999999996e+01 8.192109099999999700e+00 -7.882841800000000010e-01
5.296538800000000435e+00 3.422552599999999945e+00 -1.455883299999999991e+00
6.282249499999999820e+00 4.056397900000000334e+00 -1.453583000000000069e+00
7.681037400000000126e+00 4.957684500000000050e+00 -1.447957500000000008e+00
9.183588000000000306e+00 5.922957900000000109e+00 -1.341781499999999960e+00
1.147026699999999977e+01 7.392084099999999935e+00 -1.193859500000000073e+00
1.276893199999999950e+01 8.225863500000000883e+00 -7.960299299999999967e-01
1.280756000000000050e+01 8.244422899999999998e+00 -2.658699800000000057e-01
5.300251000000000268e+00 3.398785100000000003e+00 -1.453633799999999976e+00
6.296371899999999577e+00 4.034442399999999651e+00 -1.453583000000000069e+00
7.675006899999999632e+00 4.915927899999999795e+00 -1.443577300000000063e+00
9.232632600000000522e+00 5.909054300000000204e+00 -1.345925199999999933e+00
1.149264100000000077e+01 7.349855899999999664e+00 -1.193510800000000094e+00
1.281607999999999947e+01 8.193071399999999116e+00 -7.971813100000000318e-01
1.285310999999999915e+01 8.210434899999999203e+00 -2.662190199999999729e-01
4.573972699999999669e+00 2.912822499999999870e+00 -1.453010300000000088e+00
5.327932399999999902e+00 3.391652800000000134e+00 -1.458132900000000065e+00
6.303086799999999990e+00 4.009329799999999722e+00 -1.452056500000000083e+00
7.701270100000000340e+00 4.896806699999999957e+00 -1.445454500000000087e+00
9.289036799999999872e+00 5.901827299999999887e+00 -1.351287399999999916e+00
1.153377300000000005e+01 7.322380100000000169e+00 -1.195254000000000039e+00
1.291906200000000027e+01 8.198688499999999379e+00 -8.018915100000000296e-01
4.578708599999999684e+00 2.894540500000000183e+00 -1.451457400000000009e+00
5.333148000000000444e+00 3.368872899999999948e+00 -1.456333300000000053e+00
6.303763400000000239e+00 3.978918300000000130e+00 -1.449003599999999947e+00
7.708291100000000284e+00 4.863571600000000217e+00 -1.443577300000000063e+00
9.364993999999999374e+00 5.904305500000000428e+00 -1.359330799999999950e+00
1.154914800000000064e+01 7.275706300000000404e+00 -1.194207999999999936e+00
1.300506299999999982e+01 8.189730600000000749e+00 -8.054503800000000213e-01
1.304071899999999928e+01 8.205819099999999366e+00 -2.689415800000000134e-01
4.577830800000000089e+00 2.870554199999999945e+00 -1.447834000000000065e+00
5.351479499999999945e+00 3.354376999999999942e+00 -1.458132900000000065e+00
6.327598599999999962e+00 3.963141199999999920e+00 -1.451293299999999897e+00
7.698430499999999732e+00 4.819864700000000113e+00 -1.438571299999999997e+00
9.400694800000000129e+00 5.881052000000000390e+00 -1.361524500000000026e+00
1.158461299999999916e+01 7.241680599999999579e+00 -1.195254000000000039e+00
1.310132399999999997e+01 8.186616900000000641e+00 -8.096372499999999750e-01
4.593884499999999704e+00 2.859442200000000156e+00 -1.449904599999999988e+00
5.349918399999999963e+00 3.327440999999999871e+00 -1.454533599999999982e+00
6.324717999999999840e+00 3.930667899999999992e+00 -1.447477099999999961e+00
7.703463600000000078e+00 4.785663600000000351e+00 -1.436381200000000025e+00
9.492001500000000647e+00 5.892175199999999613e+00 -1.371761400000000020e+00
1.161998200000000026e+01 7.207497599999999949e+00 -1.196299800000000024e+00
1.349816700000000047e+01 8.369222600000000511e+00 -8.323510299999999917e-01
1.324387899999999973e+01 8.205148700000000517e+00 -2.719433900000000071e-01
4.600549700000000186e+00 2.841359399999999980e+00 -1.448869200000000079e+00
5.360924200000000361e+00 3.309680699999999920e+00 -1.454533599999999982e+00
6.344400900000000121e+00 3.913796899999999912e+00 -1.449003599999999947e+00
7.712567800000000418e+00 4.755942799999999693e+00 -1.435129899999999958e+00
9.514866800000000069e+00 5.862751000000000268e+00 -1.372248899999999994e+00
1.165738999999999947e+01 7.177283300000000033e+00 -1.197694299999999989e+00
1.329281699999999944e+01 8.181001699999999488e+00 -8.180110499999999618e-01
4.613241699999999668e+00 2.828105900000000172e+00 -1.449904599999999988e+00
5.374103999999999992e+00 3.291969100000000203e+00 -1.454983600000000044e+00
6.351326900000000109e+00 3.887525800000000142e+00 -1.447477099999999961e+00
7.713954000000000200e+00 4.719718499999999928e+00 -1.432313900000000029e+00
9.591165500000000677e+00 5.863668900000000406e+00 -1.380292300000000028e+00
1.169597100000000012e+01 7.144858799999999732e+00 -1.199088799999999955e+00
1.339970600000000012e+01 8.182428399999999158e+00 -8.228259700000000176e-01
4.614161000000000179e+00 2.804352800000000201e+00 -1.446798699999999993e+00
5.384470499999999937e+00 3.271234000000000197e+00 -1.454533599999999982e+00
6.362175500000000206e+00 3.862185199999999874e+00 -1.446713799999999939e+00
7.731203999999999965e+00 4.691408199999999695e+00 -1.432313900000000029e+00
9.649934800000000479e+00 5.851121400000000250e+00 -1.385654600000000070e+00
1.172037599999999991e+01 7.100914000000000392e+00 -1.198914400000000047e+00
1.356286000000000058e+01 8.213965399999999306e+00 -8.309903699999999782e-01
1.351042200000000015e+01 8.175756500000000315e+00 -2.756433200000000250e-01
4.615165199999999857e+00 2.784045700000000068e+00 -1.444210500000000064e+00
5.399192300000000166e+00 3.254434600000000177e+00 -1.455433399999999988e+00
6.385709799999999881e+00 3.846028599999999908e+00 -1.449003599999999947e+00
7.733990699999999663e+00 4.656247099999999861e+00 -1.429810999999999943e+00
9.680508599999999575e+00 5.823538799999999682e+00 -1.387116999999999933e+00
1.175021599999999999e+01 7.063034499999999660e+00 -1.199437499999999934e+00
1.371128900000000073e+01 8.238575900000000729e+00 -8.383173900000000511e-01
4.628171000000000035e+00 2.769901799999999970e+00 -1.445245700000000078e+00
5.391559599999999897e+00 3.225505599999999973e+00 -1.450484499999999954e+00
6.393374399999999902e+00 3.821808100000000152e+00 -1.447858700000000054e+00
7.729041600000000400e+00 4.618413000000000324e+00 -1.426056599999999897e+00
9.701473200000000574e+00 5.792419399999999996e+00 -1.387360799999999950e+00
1.179752599999999951e+01 7.038324399999999592e+00 -1.201877800000000107e+00
1.381744400000000006e+01 8.240114200000000722e+00 -8.431322599999999667e-01
1.370490000000000030e+01 8.166523899999999614e+00 -2.784706100000000073e-01
4.634007500000000057e+00 2.752568699999999868e+00 -1.444210500000000064e+00
5.407814000000000121e+00 3.209648399999999846e+00 -1.451834199999999964e+00
6.404984999999999928e+00 3.798471000000000153e+00 -1.447477099999999961e+00
7.734921899999999795e+00 4.585359600000000313e+00 -1.424179300000000037e+00
9.817273099999999530e+00 5.815180800000000261e+00 -1.401010000000000089e+00
1.182888200000000012e+01 7.001155899999999654e+00 -1.202574999999999950e+00
1.385815000000000019e+01 8.198960299999999535e+00 -8.438649799999999868e-01
4.645730000000000359e+00 2.736545099999999842e+00 -1.444728100000000071e+00
5.415625600000000262e+00 3.188775500000000207e+00 -1.450934399999999957e+00
6.397900599999999827e+00 3.764142000000000099e+00 -1.442897700000000061e+00
7.754285300000000269e+00 4.560336099999999782e+00 -1.424805199999999994e+00
9.842649500000000273e+00 5.783891200000000232e+00 -1.401741399999999915e+00
1.188073699999999988e+01 6.975967400000000040e+00 -1.205364000000000102e+00
1.391596900000000048e+01 8.167720799999999670e+00 -8.456444100000000130e-01
1.392199800000000032e+01 8.164727199999999740e+00 -2.817167300000000263e-01
4.656447400000000236e+00 2.722097900000000070e+00 -1.445245700000000078e+00
5.431771300000000302e+00 3.172801999999999900e+00 -1.452284099999999967e+00
6.417781800000000203e+00 3.745745900000000184e+00 -1.444424200000000047e+00
7.766743199999999625e+00 4.531251400000000373e+00 -1.424179300000000037e+00
9.874781600000000381e+00 5.756498800000000138e+00 -1.403447499999999959e+00
1.191362600000000072e+01 6.939464100000000357e+00 -1.206235600000000074e+00
1.397200999999999915e+01 8.135176700000000594e+00 -8.473191300000000314e-01
1.404029700000000069e+01 8.168366400000000027e+00 -2.835317900000000058e-01
4.653022299999999944e+00 2.697263200000000083e+00 -1.441104699999999905e+00
5.444500399999999907e+00 3.154797799999999874e+00 -1.452733999999999970e+00
6.424023199999999711e+00 3.719384699999999988e+00 -1.442897700000000061e+00
7.768836499999999923e+00 4.496195300000000117e+00 -1.421676399999999951e+00
9.903409999999999158e+00 5.726961099999999583e+00 -1.404666200000000087e+00
1.191707300000000025e+01 6.885876200000000225e+00 -1.204143900000000045e+00
1.402280700000000024e+01 8.099338499999999996e+00 -8.486799000000000426e-01
1.411721600000000088e+01 8.147297899999999871e+00 -2.845091200000000042e-01
4.666964499999999738e+00 2.684709300000000187e+00 -1.442657599999999984e+00
5.447031499999999582e+00 3.130919200000000124e+00 -1.450484499999999954e+00
6.431860399999999700e+00 3.694002600000000136e+00 -1.441752799999999946e+00
7.763924600000000176e+00 4.457249199999999689e+00 -1.417921999999999905e+00
9.926785499999999374e+00 5.694328800000000079e+00 -1.405153600000000003e+00
1.196351100000000045e+01 6.857112400000000108e+00 -1.206409899999999924e+00
1.407525799999999983e+01 8.064237600000000228e+00 -8.501453399999999716e-01
1.414383800000000058e+01 8.096973399999999543e+00 -2.844742199999999999e-01
4.678451100000000196e+00 2.668541700000000017e+00 -1.443175199999999991e+00
5.451156100000000393e+00 3.108024100000000178e+00 -1.448684899999999942e+00
6.448126799999999825e+00 3.673473800000000011e+00 -1.442516099999999968e+00
7.772572000000000259e+00 4.426208500000000434e+00 -1.416670600000000002e+00
9.962127699999999919e+00 5.668480899999999600e+00 -1.407347300000000079e+00
1.200122799999999934e+01 6.823190199999999983e+00 -1.207804300000000053e+00
1.413804900000000053e+01 8.034795799999999488e+00 -8.522387099999999549e-01
1.419288000000000061e+01 8.059405299999999883e+00 -2.848931000000000102e-01
4.690637100000000004e+00 2.654917199999999866e+00 -1.444210500000000064e+00
5.461971300000000085e+00 3.088978299999999955e+00 -1.448684899999999942e+00
6.450655900000000109e+00 3.645146399999999787e+00 -1.440226299999999959e+00
7.787973899999999894e+00 4.399052099999999577e+00 -1.416670600000000002e+00
9.973211299999999113e+00 5.628790900000000264e+00 -1.406128499999999892e+00
1.204926799999999965e+01 6.794960999999999807e+00 -1.210244799999999898e+00
1.423560499999999962e+01 8.024622900000000669e+00 -8.564255800000000196e-01
1.429410400000000081e+01 8.051033000000000328e+00 -2.863590999999999775e-01
4.683031100000000002e+00 2.629069100000000159e+00 -1.439034099999999983e+00
5.477281999999999762e+00 3.073710900000000024e+00 -1.450034499999999893e+00
6.460995200000000160e+00 3.622776500000000066e+00 -1.439844700000000088e+00
7.799071299999999596e+00 4.371271600000000035e+00 -1.416044700000000045e+00
9.983162899999999951e+00 5.590839899999999751e+00 -1.404910000000000103e+00
1.208216799999999935e+01 6.760801299999999792e+00 -1.211290600000000106e+00
1.434232000000000085e+01 8.022224400000000699e+00 -8.612405699999999831e-01
1.438880200000000009e+01 8.041630700000000687e+00 -2.877203500000000136e-01
4.681598700000000335e+00 2.607883199999999846e+00 -1.435928300000000046e+00
5.486276100000000433e+00 3.053623400000000210e+00 -1.449584699999999948e+00
6.466738199999999992e+00 3.596385699999999908e+00 -1.438318399999999997e+00
7.793565799999999655e+00 4.332501899999999573e+00 -1.412290499999999893e+00
1.000955699999999915e+01 5.559815900000000255e+00 -1.405884899999999993e+00
1.211614900000000006e+01 6.724382900000000163e+00 -1.212336400000000092e+00
1.445057199999999931e+01 8.016683600000000354e+00 -8.660554299999999595e-01
1.449374099999999999e+01 8.034008999999999290e+00 -2.892561900000000241e-01
4.701271099999999592e+00 2.596311299999999989e+00 -1.439034099999999983e+00
5.490078399999999803e+00 3.030685699999999816e+00 -1.447785099999999936e+00
6.482690800000000309e+00 3.575685500000000072e+00 -1.439081499999999902e+00
7.794802699999999973e+00 4.297638400000000303e+00 -1.409787399999999913e+00
1.005324700000000071e+01 5.538249000000000422e+00 -1.409297100000000080e+00
1.215525200000000083e+01 6.690703899999999926e+00 -1.213905199999999907e+00
1.454671599999999998e+01 8.003738399999999586e+00 -8.701376899999999637e-01
1.458652799999999949e+01 8.019021000000000399e+00 -2.905476699999999801e-01
4.708159900000000064e+00 2.579779600000000173e+00 -1.438516399999999917e+00
5.495495799999999598e+00 3.008697000000000177e+00 -1.446435300000000090e+00
6.484799899999999617e+00 3.547379999999999978e+00 -1.436791799999999952e+00
7.802824000000000204e+00 4.266614399999999918e+00 -1.408536000000000010e+00
1.005335700000000010e+01 5.492651500000000020e+00 -1.406616099999999925e+00
1.221525800000000039e+01 6.668277699999999975e+00 -1.217565800000000031e+00
4.725623599999999591e+00 2.567942400000000180e+00 -1.441104699999999905e+00
5.505441700000000438e+00 2.990457500000000213e+00 -1.446435300000000090e+00
6.493074400000000246e+00 3.523987800000000004e+00 -1.436028599999999988e+00
7.808247099999999996e+00 4.236007700000000042e+00 -1.406971600000000100e+00
1.007325799999999916e+01 5.460235599999999856e+00 -1.406859899999999941e+00
1.225482599999999955e+01 6.637218999999999980e+00 -1.219308999999999976e+00
1.495564800000000005e+01 8.096610999999999336e+00 -8.912813699999999617e-01
4.715407400000000138e+00 2.542174099999999992e+00 -1.435410700000000039e+00
5.514132499999999659e+00 2.970296400000000059e+00 -1.445985599999999982e+00
6.496692699999999654e+00 3.496646900000000002e+00 -1.434120400000000073e+00
7.817768100000000331e+00 4.205915899999999930e+00 -1.406033000000000088e+00
1.009575500000000048e+01 5.426917099999999827e+00 -1.407347300000000079e+00
1.228493899999999961e+01 6.598175000000000345e+00 -1.220006200000000041e+00
1.581087600000000037e+01 8.488382299999999603e+00 -9.404771899999999629e-01
1.514940400000000054e+01 8.126447699999999941e+00 -3.000766599999999951e-01
4.716614200000000423e+00 2.519497199999999992e+00 -1.432822500000000110e+00
5.521543000000000312e+00 2.948231499999999894e+00 -1.445085600000000081e+00
6.511196100000000264e+00 3.473737499999999923e+00 -1.434501999999999944e+00
7.822671899999999567e+00 4.171659000000000006e+00 -1.404155899999999901e+00
1.011382399999999926e+01 5.388946500000000306e+00 -1.407103500000000063e+00
1.232311100000000081e+01 6.560591200000000178e+00 -1.221400700000000006e+00
1.586656299999999931e+01 8.443514800000000875e+00 -9.419425700000000345e-01
1.528502800000000050e+01 8.127191500000000346e+00 -3.021709599999999885e-01
4.735186099999999954e+00 2.509268800000000077e+00 -1.435928300000000046e+00
5.530079399999999978e+00 2.928026399999999807e+00 -1.444635700000000078e+00
6.526753900000000108e+00 3.452822199999999953e+00 -1.435265299999999966e+00
7.830202100000000165e+00 4.140631700000000137e+00 -1.402904300000000104e+00
1.014135199999999948e+01 5.358243899999999726e+00 -1.408322199999999969e+00
1.236883899999999947e+01 6.529630199999999718e+00 -1.223666799999999943e+00
1.588357799999999997e+01 8.381549800000000161e+00 -9.412098500000000145e-01
4.744350400000000079e+00 2.491897600000000157e+00 -1.435928300000000046e+00
5.529913399999999868e+00 2.903271199999999830e+00 -1.441936399999999896e+00
6.540506399999999942e+00 3.430928900000000059e+00 -1.435646900000000059e+00
7.827111699999999672e+00 4.104102100000000419e+00 -1.399775500000000061e+00
1.014592700000000036e+01 5.315439200000000142e+00 -1.406372399999999967e+00
1.241097300000000025e+01 6.496581100000000220e+00 -1.225584100000000065e+00
1.590035199999999982e+01 8.319568600000000202e+00 -9.404771899999999629e-01
4.752587799999999696e+00 2.476151900000000072e+00 -1.435928300000000046e+00
5.536557700000000359e+00 2.882149000000000072e+00 -1.441036500000000053e+00
6.543733600000000372e+00 3.403549200000000052e+00 -1.433738799999999980e+00
7.844897699999999752e+00 4.078575599999999746e+00 -1.400401400000000018e+00
1.014151900000000062e+01 5.268096899999999749e+00 -1.403203699999999943e+00
1.245125999999999955e+01 6.462394200000000311e+00 -1.227327199999999952e+00
1.591511099999999956e+01 8.256660500000000624e+00 -9.396397499999999958e-01
2.623672300000000135e+01 1.366379399999999933e+01 5.163469299999999818e-01
4.753908599999999929e+00 2.456829299999999883e+00 -1.433857799999999960e+00
5.552509800000000162e+00 2.868320000000000203e+00 -1.442836199999999902e+00
6.556137599999999566e+00 3.383876299999999837e+00 -1.434120400000000073e+00
7.857671299999999803e+00 4.053911699999999563e+00 -1.400401400000000018e+00
1.017566200000000087e+01 5.245307900000000245e+00 -1.405641099999999977e+00
1.247149899999999967e+01 6.423248300000000022e+00 -1.227327199999999952e+00
1.591433400000000020e+01 8.192912099999999143e+00 -9.380697599999999747e-01
1.591171600000000019e+01 8.184530300000000480e+00 -3.123282499999999740e-01
4.753433199999999914e+00 2.436645700000000136e+00 -1.431269499999999972e+00
5.564223799999999720e+00 2.849807499999999827e+00 -1.443286099999999905e+00
6.564415000000000333e+00 3.359180199999999950e+00 -1.433357200000000109e+00
7.854188399999999959e+00 4.017460800000000276e+00 -1.397272599999999976e+00
1.019037499999999952e+01 5.207946800000000209e+00 -1.405153600000000003e+00
1.249384399999999928e+01 6.379677799999999621e+00 -1.227327199999999952e+00
1.591259600000000063e+01 8.121869999999999479e+00 -9.362903200000000092e-01
1.591346500000000042e+01 8.115323099999999457e+00 -3.118047099999999849e-01
4.759309799999999591e+00 2.416625499999999871e+00 -1.430234299999999958e+00
5.564204199999999823e+00 2.824103800000000053e+00 -1.440586700000000109e+00
6.574931099999999695e+00 3.334211100000000094e+00 -1.432975600000000016e+00
7.865334999999999965e+00 3.986862200000000023e+00 -1.396646999999999972e+00
1.021824800000000089e+01 5.175048799999999893e+00 -1.406372399999999967e+00
1.254203599999999952e+01 6.346427900000000122e+00 -1.229767599999999961e+00
1.591017399999999959e+01 8.047269800000000473e+00 -9.344061599999999856e-01
1.593239799999999917e+01 8.051518400000000852e+00 -3.115952599999999850e-01
4.774198499999999790e+00 2.404306399999999844e+00 -1.432304900000000103e+00
5.574027499999999691e+00 2.804665099999999800e+00 -1.440586700000000109e+00
6.600563499999999806e+00 3.318293300000000112e+00 -1.436028599999999988e+00
7.879205200000000353e+00 3.959380599999999806e+00 -1.396646999999999972e+00
1.022560799999999936e+01 5.134001699999999779e+00 -1.404910000000000103e+00
1.257835500000000017e+01 6.309764399999999718e+00 -1.231162099999999926e+00
1.590960300000000061e+01 7.977356399999999681e+00 -9.327314500000000175e-01
1.594252299999999956e+01 7.986909400000000048e+00 -3.112462500000000021e-01
4.782978100000000232e+00 2.386793099999999779e+00 -1.432304900000000103e+00
5.573321299999999923e+00 2.779970399999999842e+00 -1.437887200000000032e+00
6.587503400000000120e+00 3.282977300000000209e+00 -1.430685900000000066e+00
7.889441500000000218e+00 3.930093299999999790e+00 -1.396021200000000073e+00
1.022746800000000000e+01 5.090322999999999709e+00 -1.402716300000000027e+00
1.262171299999999974e+01 6.276461600000000196e+00 -1.233253799999999956e+00
1.596954799999999963e+01 7.937770800000000015e+00 -9.346155499999999616e-01
1.600075299999999956e+01 7.946326700000000187e+00 -3.118395800000000051e-01
4.783941699999999742e+00 2.367490300000000047e+00 -1.430234299999999958e+00
5.588232500000000158e+00 2.763088699999999953e+00 -1.439236900000000041e+00
6.595404099999999659e+00 3.258221600000000162e+00 -1.429922700000000102e+00
7.903112899999999996e+00 3.902528000000000219e+00 -1.396021200000000073e+00
1.025051700000000032e+01 5.057223800000000047e+00 -1.403447499999999959e+00
1.264175700000000013e+01 6.231487300000000396e+00 -1.233079599999999942e+00
1.610106700000000046e+01 7.933188000000000351e+00 -9.406865199999999705e-01
1.611989200000000011e+01 7.935471999999999859e+00 -3.136197600000000252e-01
4.776567499999999633e+00 2.343118200000000151e+00 -1.425575500000000106e+00
5.595614399999999655e+00 2.743685699999999894e+00 -1.438787100000000097e+00
6.609698800000000318e+00 3.238058099999999939e+00 -1.430685900000000066e+00
7.896494399999999914e+00 3.866744000000000181e+00 -1.392579699999999976e+00
1.027258100000000063e+01 5.025818300000000072e+00 -1.404178600000000054e+00
1.268204099999999990e+01 6.199158699999999911e+00 -1.234996999999999900e+00
1.621521800000000013e+01 7.922709499999999849e+00 -9.458153799999999833e-01
1.624135599999999968e+01 7.928468699999999814e+00 -3.154696799999999746e-01
4.789522599999999741e+00 2.329801799999999812e+00 -1.427128399999999964e+00
5.601651699999999678e+00 2.722433800000000126e+00 -1.437887200000000032e+00
6.619196900000000383e+00 3.214106999999999825e+00 -1.430304299999999973e+00
7.908165900000000192e+00 3.838296199999999825e+00 -1.392266800000000027e+00
1.028291899999999970e+01 4.986462600000000300e+00 -1.403203699999999943e+00
1.272870600000000074e+01 6.167011300000000418e+00 -1.237437399999999910e+00
1.633624999999999972e+01 7.911322600000000094e+00 -9.512583599999999695e-01
1.638233900000000176e+01 7.926594699999999882e+00 -3.176687100000000208e-01
4.800174199999999836e+00 2.312231300000000100e+00 -1.427645999999999971e+00
5.594033200000000150e+00 2.693431900000000212e+00 -1.433388200000000001e+00
6.638008600000000037e+00 3.193230600000000141e+00 -1.431830799999999959e+00
7.915060999999999680e+00 3.805859100000000161e+00 -1.391015300000000066e+00
1.029575600000000080e+01 4.946163699999999608e+00 -1.402472500000000011e+00
1.277816800000000086e+01 6.133244999999999614e+00 -1.240051999999999932e+00
1.645337100000000063e+01 7.893730200000000252e+00 -9.563872799999999508e-01
1.669439099999999954e+01 8.002196299999999596e+00 -3.231487599999999794e-01
4.814787400000000162e+00 2.299632100000000179e+00 -1.429716599999999893e+00
5.608678300000000227e+00 2.676405200000000040e+00 -1.434737900000000010e+00
6.643796899999999894e+00 3.167506899999999792e+00 -1.430685900000000066e+00
7.931863299999999839e+00 3.779908700000000010e+00 -1.391641099999999964e+00
1.030937499999999929e+01 4.908490200000000137e+00 -1.401985000000000037e+00
1.283008500000000041e+01 6.103156099999999640e+00 -1.243015299999999934e+00
1.661069900000000032e+01 7.897994999999999877e+00 -9.639236899999999997e-01
1.675292800000000071e+01 7.958463700000000252e+00 -3.237421500000000063e-01
4.803577899999999623e+00 2.273720700000000150e+00 -1.424022700000000086e+00
5.613998900000000347e+00 2.656125499999999917e+00 -1.433837999999999946e+00
6.645389599999999675e+00 3.141264200000000173e+00 -1.428777799999999987e+00
7.937209600000000087e+00 3.750210500000000113e+00 -1.390389600000000003e+00
1.031841299999999961e+01 4.870888199999999557e+00 -1.401010000000000089e+00
1.285746299999999920e+01 6.063971999999999696e+00 -1.243712499999999999e+00
1.673434599999999861e+01 7.888869299999999640e+00 -9.695759400000000250e-01
1.691310100000000105e+01 7.965912799999999905e+00 -3.263250899999999843e-01
4.809343300000000099e+00 2.256957100000000160e+00 -1.423505100000000079e+00
5.630295300000000225e+00 2.639820299999999786e+00 -1.435637700000000017e+00
6.656314799999999643e+00 3.118046500000000165e+00 -1.428777799999999987e+00
7.935940699999999737e+00 3.715778600000000154e+00 -1.387886600000000081e+00
1.032816200000000073e+01 4.831473400000000140e+00 -1.400035099999999977e+00
1.290020999999999951e+01 6.029180499999999832e+00 -1.245804300000000087e+00
1.687940400000000096e+01 7.885349299999999673e+00 -9.763795699999999744e-01
4.819335500000000216e+00 2.240127799999999780e+00 -1.424022700000000086e+00
5.630638099999999646e+00 2.616046700000000058e+00 -1.433388200000000001e+00
6.663597099999999607e+00 3.093137700000000212e+00 -1.428014499999999964e+00
7.938110799999999578e+00 3.683067600000000219e+00 -1.386009499999999894e+00
1.034856699999999918e+01 4.797059100000000242e+00 -1.400522599999999951e+00
1.295552900000000029e+01 6.000018599999999758e+00 -1.249116200000000010e+00
1.701195299999999833e+01 7.875040499999999888e+00 -9.824505999999999517e-01
1.717157900000000126e+01 7.941657499999999814e+00 -3.302344400000000180e-01
4.835508299999999871e+00 2.228179499999999980e+00 -1.426610699999999898e+00
5.623804599999999709e+00 2.589039999999999786e+00 -1.429339099999999974e+00
6.669002500000000389e+00 3.067398799999999870e+00 -1.426869799999999966e+00
7.956303600000000031e+00 3.657809299999999819e+00 -1.386948000000000070e+00
1.035442399999999985e+01 4.755937099999999695e+00 -1.399060100000000029e+00
1.299631199999999964e+01 5.963902000000000037e+00 -1.251033700000000026e+00
1.714281499999999880e+01 7.863077200000000211e+00 -9.884169099999999819e-01
1.735917099999999991e+01 7.954983200000000032e+00 -3.333060700000000098e-01
4.843257399999999713e+00 2.211285600000000073e+00 -1.426610699999999898e+00
5.642997300000000216e+00 2.575229400000000002e+00 -1.432038399999999934e+00
6.668418899999999816e+00 3.040381700000000187e+00 -1.424580100000000016e+00
7.966593300000000433e+00 3.630583800000000139e+00 -1.386635099999999898e+00
1.035568400000000011e+01 4.714995899999999907e+00 -1.397110300000000027e+00
1.303959399999999924e+01 5.931498999999999633e+00 -1.253299699999999905e+00
1.728151700000000091e+01 7.857441900000000423e+00 -9.949065400000000059e-01
4.836484399999999795e+00 2.188839199999999874e+00 -1.422469699999999948e+00
5.648399399999999737e+00 2.553914300000000193e+00 -1.431138800000000044e+00
6.680781800000000104e+00 3.017891899999999961e+00 -1.424961700000000109e+00
7.977415099999999981e+00 3.601945600000000081e+00 -1.386322300000000007e+00
1.035398700000000005e+01 4.670653800000000189e+00 -1.394672899999999993e+00
1.308564999999999934e+01 5.897403200000000290e+00 -1.255740000000000078e+00
1.740899800000000042e+01 7.842183099999999740e+00 -1.000663499999999928e+00
1.760985900000000015e+01 7.925271000000000399e+00 -3.370757699999999968e-01
4.837422400000000344e+00 2.167938700000000107e+00 -1.420399200000000084e+00
5.662615800000000199e+00 2.536570499999999839e+00 -1.432488399999999995e+00
6.694858100000000256e+00 2.996158599999999783e+00 -1.425724900000000073e+00
7.984530900000000209e+00 3.571655300000000199e+00 -1.385383599999999937e+00
1.038472499999999954e+01 4.640964999999999563e+00 -1.396622899999999889e+00
1.309888100000000044e+01 5.848437800000000131e+00 -1.255042800000000014e+00
1.756758500000000112e+01 7.839975400000000150e+00 -1.008199899999999927e+00
1.775795899999999961e+01 7.917491899999999916e+00 -3.393794900000000059e-01
4.846349700000000205e+00 2.152670599999999990e+00 -1.420916800000000091e+00
5.658967500000000150e+00 2.511254099999999934e+00 -1.429339099999999974e+00
6.696303399999999684e+00 2.968790999999999958e+00 -1.423816799999999994e+00
8.002368000000000592e+00 3.546161199999999791e+00 -1.386322300000000007e+00
1.038634000000000057e+01 4.598255199999999654e+00 -1.394672899999999993e+00
1.313378799999999913e+01 5.809134499999999868e+00 -1.256437299999999979e+00
1.770627599999999902e+01 7.827863200000000354e+00 -1.014584900000000012e+00
1.990005899999999883e+01 8.789431600000000344e+00 -3.797294800000000081e-01
4.857743700000000331e+00 2.136450099999999797e+00 -1.421952099999999941e+00
5.662346399999999669e+00 2.489134099999999794e+00 -1.427989500000000023e+00
6.722801200000000144e+00 2.952507999999999910e+00 -1.427251300000000001e+00
8.000227900000000503e+00 3.511855800000000194e+00 -1.383819300000000085e+00
1.038778600000000019e+01 4.555591599999999630e+00 -1.392722999999999933e+00
1.318318700000000021e+01 5.776043399999999828e+00 -1.259226299999999910e+00
1.779386900000000082e+01 7.792443800000000032e+00 -1.018039099999999975e+00
1.805828899999999848e+01 7.900739699999999921e+00 -3.440567299999999773e-01
4.864802400000000304e+00 2.120327899999999932e+00 -1.421952099999999941e+00
5.679935000000000400e+00 2.473241999999999940e+00 -1.430238799999999921e+00
6.718664600000000320e+00 2.922755700000000179e+00 -1.424198400000000087e+00
8.010627700000000573e+00 3.483118800000000181e+00 -1.383506499999999972e+00
1.038541500000000006e+01 4.511401700000000403e+00 -1.390285599999999899e+00
1.325444199999999917e+01 5.752202500000000107e+00 -1.264107000000000092e+00
1.796570600000000084e+01 7.793085600000000390e+00 -1.026308100000000056e+00
1.819951800000000119e+01 7.886949999999999683e+00 -3.462208500000000244e-01
4.860125100000000309e+00 2.097124599999999894e+00 -1.418328599999999939e+00
5.676006799999999686e+00 2.447999199999999931e+00 -1.427089599999999958e+00
6.721614800000000223e+00 2.896176099999999920e+00 -1.422671900000000100e+00
8.019106900000000593e+00 3.453573899999999863e+00 -1.382880700000000074e+00
1.040474700000000041e+01 4.476688399999999568e+00 -1.390773100000000095e+00
1.330372900000000058e+01 5.718486300000000355e+00 -1.266895899999999964e+00
1.806987600000000072e+01 7.763433499999999654e+00 -1.030704300000000018e+00
1.833718899999999863e+01 7.870700799999999830e+00 -3.483151199999999781e-01
4.865276800000000179e+00 2.080235200000000173e+00 -1.417810900000000096e+00
5.689893200000000206e+00 2.430468999999999991e+00 -1.428439299999999967e+00
6.735294800000000137e+00 2.874238500000000140e+00 -1.423435199999999901e+00
8.012943299999999880e+00 3.417812800000000095e+00 -1.379752000000000089e+00
1.041665799999999997e+01 4.438787900000000342e+00 -1.390285599999999899e+00
1.337494000000000050e+01 5.693861000000000061e+00 -1.271776699999999982e+00
1.811891699999999972e+01 7.709698699999999683e+00 -1.031960400000000000e+00
1.854122699999999924e+01 7.881741500000000400e+00 -3.516659999999999786e-01
4.874287599999999721e+00 2.063993899999999826e+00 -1.418328599999999939e+00
5.679975999999999914e+00 2.403990299999999802e+00 -1.423940299999999937e+00
6.739365099999999664e+00 2.849592200000000020e+00 -1.422290300000000007e+00
8.009677899999999795e+00 3.385068200000000083e+00 -1.377249100000000004e+00
1.042217600000000033e+01 4.400356799999999957e+00 -1.389066899999999993e+00
1.339925500000000014e+01 5.651802100000000273e+00 -1.272299599999999975e+00
1.805052600000000140e+01 7.609996299999999714e+00 -1.026622200000000040e+00
1.864834600000000009e+01 7.854369199999999829e+00 -3.532018100000000049e-01
4.881104500000000179e+00 2.047819899999999915e+00 -1.418328599999999939e+00
5.688333000000000084e+00 2.384149999999999991e+00 -1.423940299999999937e+00
6.751080499999999596e+00 2.826809400000000139e+00 -1.422671900000000100e+00
8.019620899999999608e+00 3.356327299999999791e+00 -1.376936099999999996e+00
1.041915799999999948e+01 4.356294600000000017e+00 -1.386629499999999959e+00
1.350163099999999972e+01 5.639554500000000026e+00 -1.280143599999999937e+00
1.816360299999999839e+01 7.583110300000000414e+00 -1.031541700000000006e+00
1.885651800000000122e+01 7.864667400000000086e+00 -3.566224900000000142e-01
4.892145199999999861e+00 2.031398799999999838e+00 -1.419363900000000012e+00
5.691221200000000202e+00 2.362036900000000106e+00 -1.422590599999999927e+00
6.746398400000000350e+00 2.797212399999999821e+00 -1.419619100000000023e+00
8.031289100000000403e+00 3.328310999999999797e+00 -1.376936099999999996e+00
1.041595900000000086e+01 4.312307399999999902e+00 -1.384192099999999925e+00
1.360224499999999992e+01 5.625892200000000010e+00 -1.287813300000000050e+00
1.825271800000000155e+01 7.545608999999999789e+00 -1.035100600000000037e+00
1.899844900000000081e+01 7.846117999999999704e+00 -3.587865499999999819e-01
4.886348700000000100e+00 2.010018800000000105e+00 -1.415740400000000010e+00
5.710246099999999991e+00 2.346601999999999855e+00 -1.425289999999999946e+00
6.750673800000000391e+00 2.771407599999999860e+00 -1.418474199999999907e+00
8.039202700000000590e+00 3.298758299999999810e+00 -1.376310499999999992e+00
1.041625600000000063e+01 4.269896499999999762e+00 -1.382242200000000087e+00
1.369186200000000042e+01 5.607072399999999845e+00 -1.294437199999999955e+00
1.819761700000000104e+01 7.448554500000000189e+00 -1.030494900000000102e+00
1.912937200000000004e+01 7.822141600000000139e+00 -3.607412300000000238e-01
4.884042299999999948e+00 1.990159900000000093e+00 -1.413152100000000022e+00
5.710370499999999794e+00 2.325709300000000201e+00 -1.423490300000000097e+00
6.759345999999999854e+00 2.750187400000000171e+00 -1.418474199999999907e+00
8.044038799999999156e+00 3.271251700000000096e+00 -1.375371899999999981e+00
1.042225999999999964e+01 4.234165199999999629e+00 -1.381267299999999976e+00
1.380541000000000018e+01 5.602988200000000418e+00 -1.303501400000000032e+00
1.836898800000000165e+01 7.451413600000000415e+00 -1.038868799999999926e+00
1.932065199999999905e+01 7.829594600000000071e+00 -3.638826600000000244e-01
4.895989400000000380e+00 1.976120700000000063e+00 -1.414705000000000101e+00
5.711223600000000289e+00 2.302850999999999981e+00 -1.421690700000000085e+00
6.765263100000000307e+00 2.725106999999999946e+00 -1.417710900000000107e+00
8.044412599999999358e+00 3.238727799999999934e+00 -1.373494599999999899e+00
1.042592800000000075e+01 4.193311200000000127e+00 -1.379804800000000053e+00
1.390622800000000048e+01 5.587450999999999723e+00 -1.311171099999999923e+00
1.840230199999999883e+01 7.390221099999999765e+00 -1.039287400000000083e+00
1.952974299999999985e+01 7.835076800000000397e+00 -3.673033700000000179e-01
4.910375600000000063e+00 1.961030000000000051e+00 -1.416775700000000082e+00
5.710178400000000210e+00 2.279287599999999969e+00 -1.419441200000000070e+00
6.774733999999999590e+00 2.701476800000000011e+00 -1.417710900000000107e+00
8.051997200000000632e+00 3.209166800000000208e+00 -1.372868900000000059e+00
1.042574699999999943e+01 4.151020499999999558e+00 -1.377854899999999994e+00
1.397007999999999939e+01 5.556544299999999659e+00 -1.315354600000000040e+00
1.845768400000000042e+01 7.337740400000000385e+00 -1.040962200000000060e+00
1.980601300000000009e+01 7.865755599999999959e+00 -3.719806099999999893e-01
4.915054300000000431e+00 1.944026100000000090e+00 -1.416258000000000017e+00
5.718100999999999878e+00 2.259339999999999904e+00 -1.419441200000000070e+00
6.774992899999999985e+00 2.674206299999999814e+00 -1.415802800000000028e+00
8.068664599999999965e+00 3.183212999999999848e+00 -1.373807500000000070e+00
1.041801300000000019e+01 4.105865500000000168e+00 -1.374929999999999986e+00
1.411730499999999999e+01 5.558117400000000430e+00 -1.327382099999999898e+00
1.853522299999999845e+01 7.293747399999999992e+00 -1.043892999999999960e+00
1.979612200000000044e+01 7.781952900000000284e+00 -3.712824900000000206e-01
4.913487899999999797e+00 1.921620099999999942e+00 -1.413669800000000087e+00
5.722712500000000091e+00 2.236949000000000076e+00 -1.418541400000000063e+00
6.770117800000000408e+00 2.643644999999999801e+00 -1.412749899999999892e+00
8.067395199999999988e+00 3.148592900000000139e+00 -1.371617400000000098e+00
1.043298899999999918e+01 4.067656000000000382e+00 -1.374929999999999986e+00
1.422670100000000026e+01 5.541035700000000119e+00 -1.335749000000000075e+00
1.860277599999999865e+01 7.241707299999999847e+00 -1.046195900000000067e+00
1.999225399999999908e+01 7.774558999999999997e+00 -3.744239200000000212e-01
4.907222299999999926e+00 1.900433199999999934e+00 -1.410046499999999980e+00
5.730486400000000202e+00 2.216957799999999867e+00 -1.418541400000000063e+00
6.777473900000000384e+00 2.619287499999999991e+00 -1.412368300000000021e+00
8.063596699999999728e+00 3.114717000000000180e+00 -1.369114500000000012e+00
1.044342199999999998e+01 4.029781299999999788e+00 -1.374442600000000070e+00
1.434262200000000043e+01 5.528615000000000279e+00 -1.344813100000000095e+00
1.870249199999999945e+01 7.205444299999999913e+00 -1.050382699999999891e+00
2.020215800000000073e+01 7.775129299999999688e+00 -3.778445999999999749e-01
4.926454099999999947e+00 1.888130300000000039e+00 -1.413669800000000087e+00
5.730527399999999716e+00 2.195155600000000096e+00 -1.416741800000000051e+00
6.786122299999999719e+00 2.596799400000000091e+00 -1.412368300000000021e+00
8.070190399999999542e+00 3.086546400000000023e+00 -1.368488699999999891e+00
1.045672700000000077e+01 3.995129799999999953e+00 -1.374442600000000070e+00
1.442602899999999977e+01 5.505884199999999673e+00 -1.350914100000000007e+00
1.874867599999999968e+01 7.151930300000000074e+00 -1.051638700000000037e+00
2.221230900000000119e+01 8.464299199999999246e+00 -4.149135400000000251e-01
4.925464200000000403e+00 1.869040500000000105e+00 -1.411599400000000060e+00
5.718110099999999640e+00 2.167542000000000080e+00 -1.411793000000000076e+00
6.789636599999999689e+00 2.571011299999999888e+00 -1.411223399999999906e+00
8.071677199999999885e+00 3.054867300000000174e+00 -1.366924400000000039e+00
1.044832700000000081e+01 3.950182400000000094e+00 -1.371517799999999898e+00
1.443584199999999917e+01 5.451971099999999737e+00 -1.350042600000000093e+00
1.880716100000000068e+01 7.099132499999999624e+00 -1.053522800000000093e+00
2.224359099999999856e+01 8.387412100000000592e+00 -4.149483999999999950e-01
4.934413000000000160e+00 1.850794000000000050e+00 -1.412117000000000067e+00
5.731490599999999880e+00 2.148620100000000033e+00 -1.413142600000000026e+00
6.776952299999999596e+00 2.537844900000000070e+00 -1.406644000000000005e+00
8.105019600000000324e+00 3.033569299999999913e+00 -1.370678800000000086e+00
1.044414100000000012e+01 3.904906700000000175e+00 -1.369080300000000028e+00
1.448185600000000051e+01 5.408786300000000047e+00 -1.352482900000000043e+00
1.885176699999999883e+01 7.037142300000000184e+00 -1.054569599999999996e+00
2.238472900000000010e+01 8.347055400000000347e+00 -4.170077999999999840e-01
4.935090100000000035e+00 1.832401900000000028e+00 -1.410564099999999987e+00
5.737128300000000181e+00 2.127924000000000149e+00 -1.412692700000000023e+00
6.778405700000000422e+00 2.511446700000000032e+00 -1.405117500000000019e+00
8.097036400000000356e+00 2.998397399999999990e+00 -1.367550100000000102e+00
1.045398299999999914e+01 3.867050900000000180e+00 -1.368592899999999890e+00
1.457353699999999996e+01 5.385131399999999680e+00 -1.359281100000000020e+00
1.892492500000000177e+01 6.989288799999999746e+00 -1.057290999999999981e+00
2.088283500000000004e+01 7.704083899999999652e+00 -3.885254899999999734e-01
4.937512400000000135e+00 1.814694400000000041e+00 -1.409528700000000079e+00
5.752932099999999771e+00 2.113247900000000179e+00 -1.414942300000000097e+00
6.789948500000000386e+00 2.491489899999999924e+00 -1.405880800000000042e+00
8.104560899999999179e+00 2.972266199999999969e+00 -1.367237299999999989e+00
1.045489899999999928e+01 3.830089300000000030e+00 -1.367130399999999968e+00
1.458850999999999942e+01 5.338638800000000018e+00 -1.359106799999999948e+00
1.898805600000000027e+01 6.944887200000000149e+00 -1.059593800000000030e+00
2.110978700000000075e+01 7.712557300000000282e+00 -3.922951800000000211e-01
4.941687599999999847e+00 1.797651799999999911e+00 -1.409011100000000072e+00
5.747453199999999818e+00 2.088493300000000108e+00 -1.411793000000000076e+00
6.794913300000000156e+00 2.466435000000000155e+00 -1.405117500000000019e+00
8.103745500000000490e+00 2.939913999999999916e+00 -1.365359999999999907e+00
1.046260499999999993e+01 3.791545199999999838e+00 -1.366399300000000094e+00
1.459394499999999972e+01 5.282931800000000067e+00 -1.357886600000000055e+00
1.903471899999999906e+01 6.886722999999999928e+00 -1.060849799999999954e+00
2.129831899999999933e+01 7.697270399999999846e+00 -3.952970199999999990e-01
4.946425399999999861e+00 1.778872500000000079e+00 -1.408493500000000065e+00
5.743703799999999582e+00 2.064467200000000169e+00 -1.409093499999999999e+00
6.809024800000000432e+00 2.444690000000000030e+00 -1.406262399999999912e+00
8.104660000000000863e+00 2.908278000000000141e+00 -1.363795799999999891e+00
1.045148400000000066e+01 3.746290199999999793e+00 -1.363230600000000070e+00
1.458978600000000014e+01 5.223900300000000385e+00 -1.355794799999999967e+00
1.910377499999999884e+01 6.836382900000000262e+00 -1.063361999999999918e+00
2.153218499999999835e+01 7.696923700000000146e+00 -3.991365399999999841e-01
4.954117799999999683e+00 1.763106199999999957e+00 -1.409011100000000072e+00
5.750875899999999596e+00 2.044403599999999877e+00 -1.409093499999999999e+00
6.791615499999999805e+00 2.411710999999999938e+00 -1.400919800000000048e+00
8.103593800000000513e+00 2.876003499999999935e+00 -1.361918399999999973e+00
1.045701299999999989e+01 3.707133799999999813e+00 -1.362255599999999900e+00
1.463422699999999921e+01 5.182248099999999802e+00 -1.358235099999999917e+00
1.917647600000000097e+01 6.786985900000000349e+00 -1.066083399999999903e+00
2.172860500000000172e+01 7.681697800000000242e+00 -4.022779799999999795e-01
4.953257100000000079e+00 1.742373500000000019e+00 -1.406940599999999986e+00
5.763492600000000188e+00 2.026254400000000011e+00 -1.410443200000000008e+00
6.790731400000000306e+00 2.384734900000000213e+00 -1.399011599999999911e+00
